-80 -30 1.613
-80 -29 2.0835
-80 -28 2.0993
-80 -27 2.289
-80 -26 2.4814
-80 -25 2.6525
-80 -24 2.7812
-80 -23 2.8641
-80 -22 2.854
-80 -21 2.7123
-80 -20 2.5068
-80 -19 2.3579
-80 -18 2.4315
-80 -17 2.7412
-80 -16 3.0568
-80 -15 3.2401
-80 -14 3.3594
-80 -13 3.4619
-80 -12 3.3601
-80 -11 2.7452
-80 -10 1.6338
-80 -9 0.34388
-80 -8 -0.52517
-80 -7 -0.94682
-80 -6 -1.0886
-80 -5 -1.2534
-80 -4 -1.3266
-80 -3 -1.2153
-80 -2 -1.1504
-80 -1 -1.1061
-80 0 -0.77252
-80 1 0.03825
-80 2 1.1268
-80 3 1.8628
-80 4 2.1478
-80 5 2.2788
-80 6 2.1452
-80 7 1.527
-80 8 0.60515
-80 9 0.40021
-80 10 1.0701
-80 11 1.7693
-80 12 1.9648
-80 13 1.85
-80 14 1.3976
-80 15 0.81129
-80 16 0.39346
-80 17 0.72574
-80 18 1.6841
-80 19 2.0828
-80 20 1.27
-79 -30 2.3411
-79 -29 3.0554
-79 -28 3.1718
-79 -27 3.334
-79 -26 3.5454
-79 -25 3.776
-79 -24 3.9737
-79 -23 4.1143
-79 -22 4.1256
-79 -21 3.9852
-79 -20 3.7711
-79 -19 3.5314
-79 -18 3.4338
-79 -17 3.6225
-79 -16 3.9233
-79 -15 4.1494
-79 -14 4.2182
-79 -13 4.0594
-79 -12 3.475
-79 -11 2.1064
-79 -10 0.45855
-79 -9 -0.96022
-79 -8 -1.8086
-79 -7 -2.0906
-79 -6 -1.8902
-79 -5 -1.7178
-79 -4 -1.833
-79 -3 -1.9451
-79 -2 -2.0412
-79 -1 -2.1166
-79 0 -1.7879
-79 1 -0.80593
-79 2 0.54878
-79 3 1.6703
-79 4 2.4066
-79 5 2.8272
-79 6 2.7353
-79 7 1.9531
-79 8 0.79226
-79 9 0.58655
-79 10 1.5298
-79 11 2.5615
-79 12 2.9716
-79 13 2.8775
-79 14 2.3265
-79 15 1.5163
-79 16 0.86055
-79 17 0.91902
-79 18 1.8009
-79 19 2.4361
-79 20 1.4378
-78 -30 2.6545
-78 -29 3.497
-78 -28 3.6548
-78 -27 3.7042
-78 -26 3.8422
-78 -25 4.0995
-78 -24 4.3623
-78 -23 4.5429
-78 -22 4.6163
-78 -21 4.5802
-78 -20 4.4474
-78 -19 4.2073
-78 -18 3.9346
-78 -17 3.7446
-78 -16 3.7548
-78 -15 3.7956
-78 -14 3.4845
-78 -13 2.6139
-78 -12 1.3377
-78 -11 -0.27904
-78 -10 -1.7876
-78 -9 -2.8125
-78 -8 -3.0383
-78 -7 -2.6219
-78 -6 -2.0034
-78 -5 -1.4784
-78 -4 -1.4258
-78 -3 -1.5776
-78 -2 -1.8238
-78 -1 -2.196
-78 0 -2.42
-78 1 -1.8908
-78 2 -0.74167
-78 3 0.31191
-78 4 1.2303
-78 5 1.9087
-78 6 1.9465
-78 7 1.3219
-78 8 0.48296
-78 9 0.54444
-78 10 1.6172
-78 11 2.7601
-78 12 3.3488
-78 13 3.4083
-78 14 2.9561
-78 15 2.1576
-78 16 1.4119
-78 17 1.0172
-78 18 1.4546
-78 19 2.0134
-78 20 1.0027
-77 -30 2.7948
-77 -29 3.6947
-77 -28 3.815
-77 -27 3.7996
-77 -26 3.861
-77 -25 4.1032
-77 -24 4.3965
-77 -23 4.6198
-77 -22 4.7684
-77 -21 4.8552
-77 -20 4.8147
-77 -19 4.6218
-77 -18 4.289
-77 -17 3.8208
-77 -16 3.2909
-77 -15 2.6205
-77 -14 1.4546
-77 -13 -0.13252
-77 -12 -1.6258
-77 -11 -2.8433
-77 -10 -3.5332
-77 -9 -3.5497
-77 -8 -3.0429
-77 -7 -2.2311
-77 -6 -1.4411
-77 -5 -0.86496
-77 -4 -0.70125
-77 -3 -0.7885
-77 -2 -1.0128
-77 -1 -1.3973
-77 0 -1.8955
-77 1 -2.0824
-77 2 -1.7173
-77 3 -1.3035
-77 4 -0.74093
-77 5 -0.21267
-77 6 -0.096851
-77 7 -0.24202
-77 8 -0.24886
-77 9 0.30138
-77 10 1.39
-77 11 2.4853
-77 12 3.2512
-77 13 3.5836
-77 14 3.4137
-77 15 2.805
-77 16 2.0125
-77 17 1.3253
-77 18 1.2602
-77 19 1.4519
-77 20 0.45955
-76 -30 2.8881
-76 -29 3.8562
-76 -28 4.0239
-76 -27 3.9709
-76 -26 3.9402
-76 -25 4.0541
-76 -24 4.313
-76 -23 4.5815
-76 -22 4.8256
-76 -21 5.0394
-76 -20 5.0694
-76 -19 4.8944
-76 -18 4.5624
-76 -17 3.9203
-76 -16 2.6709
-76 -15 0.84801
-76 -14 -1.1869
-76 -13 -2.9717
-76 -12 -3.922
-76 -11 -4.01
-76 -10 -3.5414
-76 -9 -2.7523
-76 -8 -2.0226
-76 -7 -1.3623
-76 -6 -0.74524
-76 -5 -0.35558
-76 -4 -0.24532
-76 -3 -0.3
-76 -2 -0.43907
-76 -1 -0.67019
-76 0 -1.0317
-76 1 -1.4622
-76 2 -1.9059
-76 3 -2.3343
-76 4 -2.2809
-76 5 -1.9805
-76 6 -1.8335
-76 7 -1.6141
-76 8 -1.0307
-76 9 -0.30208
-76 10 0.54675
-76 11 1.6399
-76 12 2.7704
-76 13 3.4796
-76 14 3.6027
-76 15 3.2141
-76 16 2.4589
-76 17 1.6399
-76 18 1.2684
-76 19 1.1062
-76 20 0.21996
-75 -30 2.9756
-75 -29 4.0177
-75 -28 4.2623
-75 -27 4.1903
-75 -26 4.0725
-75 -25 4.0222
-75 -24 4.2078
-75 -23 4.496
-75 -22 4.8212
-75 -21 5.1111
-75 -20 5.2008
-75 -19 5.0381
-75 -18 4.6581
-75 -17 3.692
-75 -16 1.4923
-75 -15 -1.2697
-75 -14 -3.4622
-75 -13 -4.5515
-75 -12 -4.3801
-75 -11 -3.4108
-75 -10 -2.3028
-75 -9 -1.4466
-75 -8 -0.92686
-75 -7 -0.57203
-75 -6 -0.26591
-75 -5 -0.088166
-75 -4 -0.053141
-75 -3 -0.09866
-75 -2 -0.18348
-75 -1 -0.31071
-75 0 -0.51332
-75 1 -0.86245
-75 2 -1.4702
-75 3 -2.2086
-75 4 -2.5622
-75 5 -2.5954
-75 6 -2.4192
-75 7 -2.0234
-75 8 -1.3917
-75 9 -0.86439
-75 10 -0.43291
-75 11 0.46016
-75 12 1.9759
-75 13 3.1565
-75 14 3.5849
-75 15 3.4426
-75 16 2.8322
-75 17 2.0425
-75 18 1.5022
-75 19 1.1183
-75 20 0.34136
-74 -30 2.973
-74 -29 4.0573
-74 -28 4.3691
-74 -27 4.317
-74 -26 4.1787
-74 -25 4.0926
-74 -24 4.1677
-74 -23 4.4055
-74 -22 4.7801
-74 -21 5.0896
-74 -20 5.198
-74 -19 5.0589
-74 -18 4.4956
-74 -17 2.8317
-74 -16 -0.33416
-74 -15 -3.366
-74 -14 -4.9162
-74 -13 -4.8284
-74 -12 -3.6125
-74 -11 -2.3129
-74 -10 -1.2553
-74 -9 -0.62893
-74 -8 -0.34492
-74 -7 -0.18675
-74 -6 -0.063905
-74 -5 0.0032546
-74 -4 0.0040877
-74 -3 -0.03475
-74 -2 -0.093681
-74 -1 -0.17184
-74 0 -0.29582
-74 1 -0.52464
-74 2 -0.96203
-74 3 -1.6307
-74 4 -2.2875
-74 5 -2.6579
-74 6 -2.5874
-74 7 -2.2137
-74 8 -1.7714
-74 9 -1.4152
-74 10 -1.2712
-74 11 -0.61998
-74 12 1.0131
-74 13 2.6022
-74 14 3.3918
-74 15 3.4839
-74 16 3.1726
-74 17 2.5861
-74 18 1.8221
-74 19 1.1826
-74 20 0.48566
-73 -30 2.6093
-73 -29 3.6862
-73 -28 4.1288
-73 -27 4.1522
-73 -26 4.0795
-73 -25 4.0742
-73 -24 4.1592
-73 -23 4.3474
-73 -22 4.6783
-73 -21 4.9194
-73 -20 4.9735
-73 -19 4.7592
-73 -18 3.669
-73 -17 1.0574
-73 -16 -2.3852
-73 -15 -4.9212
-73 -14 -5.5852
-73 -13 -4.6243
-73 -12 -2.8489
-73 -11 -1.4871
-73 -10 -0.70357
-73 -9 -0.31163
-73 -8 -0.15028
-73 -7 -0.074952
-73 -6 -0.021434
-73 -5 0.0081845
-73 -4 0.0048878
-73 -3 -0.024462
-73 -2 -0.069814
-73 -1 -0.12834
-73 0 -0.21443
-73 1 -0.35388
-73 2 -0.59333
-73 3 -0.984
-73 4 -1.5363
-73 5 -2.15
-73 6 -2.5317
-73 7 -2.4969
-73 8 -2.2852
-73 9 -1.8898
-73 10 -1.7081
-73 11 -1.0801
-73 12 0.32047
-73 13 1.9376
-73 14 3.0329
-73 15 3.295
-73 16 3.206
-73 17 2.8511
-73 18 1.9229
-73 19 0.857
-73 20 0.19874
-72 -30 1.3841
-72 -29 2.1845
-72 -28 2.7742
-72 -27 2.9851
-72 -26 3.1026
-72 -25 3.3241
-72 -24 3.6163
-72 -23 3.9301
-72 -22 4.1838
-72 -21 4.2197
-72 -20 4.0549
-72 -19 3.5192
-72 -18 1.6879
-72 -17 -1.2553
-72 -16 -4.1776
-72 -15 -5.7909
-72 -14 -5.6182
-72 -13 -4.0974
-72 -12 -2.2185
-72 -11 -0.99628
-72 -10 -0.43242
-72 -9 -0.19286
-72 -8 -0.090465
-72 -7 -0.04455
-72 -6 -0.017571
-72 -5 -0.0011574
-72 -4 -0.0013875
-72 -3 -0.024195
-72 -2 -0.065596
-72 -1 -0.1212
-72 0 -0.18742
-72 1 -0.27055
-72 2 -0.37667
-72 3 -0.53605
-72 4 -0.82227
-72 5 -1.2846
-72 6 -1.7528
-72 7 -2.0257
-72 8 -2.1674
-72 9 -1.8524
-72 10 -1.4973
-72 11 -0.97806
-72 12 0.0060195
-72 13 1.4791
-72 14 2.8039
-72 15 3.2369
-72 16 3.2062
-72 17 2.8305
-72 18 1.7324
-72 19 0.32789
-72 20 -0.18589
-71 -30 -0.61649
-71 -29 -0.562
-71 -28 -0.1231
-71 -27 0.31383
-71 -26 0.72999
-71 -25 1.1808
-71 -24 1.6606
-71 -23 2.1252
-71 -22 2.3748
-71 -21 2.238
-71 -20 1.7298
-71 -19 0.77966
-71 -18 -1.0832
-71 -17 -3.4959
-71 -16 -5.4058
-71 -15 -6.0419
-71 -14 -5.1514
-71 -13 -3.1958
-71 -12 -1.4995
-71 -11 -0.61778
-71 -10 -0.25712
-71 -9 -0.11735
-71 -8 -0.058348
-71 -7 -0.032203
-71 -6 -0.019359
-71 -5 -0.0081372
-71 -4 -0.0043289
-71 -3 -0.024951
-71 -2 -0.069961
-71 -1 -0.12603
-71 0 -0.18185
-71 1 -0.24094
-71 2 -0.28955
-71 3 -0.34325
-71 4 -0.45196
-71 5 -0.65517
-71 6 -0.92022
-71 7 -1.2035
-71 8 -1.5015
-71 9 -1.5387
-71 10 -1.2817
-71 11 -0.85347
-71 12 -0.059498
-71 13 1.3589
-71 14 2.8359
-71 15 3.4
-71 16 3.3525
-71 17 2.7745
-71 18 1.3489
-71 19 -0.071133
-71 20 -0.32451
-70 -30 -2.2921
-70 -29 -3.0109
-70 -28 -2.9901
-70 -27 -2.7089
-70 -26 -2.3574
-70 -25 -1.9741
-70 -24 -1.5119
-70 -23 -1.1626
-70 -22 -1.0412
-70 -21 -1.171
-70 -20 -1.6799
-70 -19 -2.5436
-70 -18 -3.7885
-70 -17 -5.1134
-70 -16 -5.8588
-70 -15 -5.6471
-70 -14 -4.2464
-70 -13 -2.2192
-70 -12 -0.8643
-70 -11 -0.3086
-70 -10 -0.11545
-70 -9 -0.052286
-70 -8 -0.03201
-70 -7 -0.026784
-70 -6 -0.028567
-70 -5 -0.023784
-70 -4 -0.015686
-70 -3 -0.029746
-70 -2 -0.072669
-70 -1 -0.12055
-70 0 -0.17057
-70 1 -0.22475
-70 2 -0.26419
-70 3 -0.28532
-70 4 -0.32388
-70 5 -0.39964
-70 6 -0.51883
-70 7 -0.69661
-70 8 -0.94705
-70 9 -1.1745
-70 10 -1.1642
-70 11 -0.76699
-70 12 0.078787
-70 13 1.5068
-70 14 3.0143
-70 15 3.5989
-70 16 3.5223
-70 17 2.811
-70 18 1.2235
-70 19 0.11326
-70 20 0.0023135
-69 -30 -2.7865
-69 -29 -4.027
-69 -28 -4.6312
-69 -27 -4.8496
-69 -26 -4.7993
-69 -25 -4.5527
-69 -24 -4.1832
-69 -23 -4.0007
-69 -22 -4.0583
-69 -21 -4.2017
-69 -20 -4.5368
-69 -19 -5.0211
-69 -18 -5.489
-69 -17 -5.6807
-69 -16 -5.3994
-69 -15 -4.5255
-69 -14 -2.9295
-69 -13 -1.3063
-69 -12 -0.41426
-69 -11 -0.098701
-69 -10 -0.011647
-69 -9 -0.0005883
-69 -8 -0.011416
-69 -7 -0.021608
-69 -6 -0.031639
-69 -5 -0.031702
-69 -4 -0.021716
-69 -3 -0.031931
-69 -2 -0.070252
-69 -1 -0.11134
-69 0 -0.15644
-69 1 -0.21082
-69 2 -0.25456
-69 3 -0.27664
-69 4 -0.31754
-69 5 -0.37344
-69 6 -0.42926
-69 7 -0.52629
-69 8 -0.69696
-69 9 -0.91806
-69 10 -0.97648
-69 11 -0.52673
-69 12 0.47943
-69 13 1.9315
-69 14 3.3462
-69 15 3.846
-69 16 3.7332
-69 17 3.0071
-69 18 1.5263
-69 19 0.79944
-69 20 0.70017
-68 -30 -2.3265
-68 -29 -3.6951
-68 -28 -4.7408
-68 -27 -5.4966
-68 -26 -5.7991
-68 -25 -5.7503
-68 -24 -5.6006
-68 -23 -5.5906
-68 -22 -5.7295
-68 -21 -5.7887
-68 -20 -5.8533
-68 -19 -5.9169
-68 -18 -5.758
-68 -17 -5.1468
-68 -16 -4.1314
-68 -15 -2.8774
-68 -14 -1.5461
-68 -13 -0.5652
-68 -12 -0.11322
-68 -11 0.024733
-68 -10 0.045392
-68 -9 0.031956
-68 -8 0.0072376
-68 -7 -0.010876
-68 -6 -0.020667
-68 -5 -0.023363
-68 -4 -0.019002
-68 -3 -0.030669
-68 -2 -0.063381
-68 -1 -0.10672
-68 0 -0.16481
-68 1 -0.22593
-68 2 -0.26841
-68 3 -0.31309
-68 4 -0.41524
-68 5 -0.52147
-68 6 -0.52939
-68 7 -0.55682
-68 8 -0.66162
-68 9 -0.84943
-68 10 -0.87761
-68 11 -0.29931
-68 12 0.89815
-68 13 2.4646
-68 14 3.7586
-68 15 4.1384
-68 16 3.9389
-68 17 3.1711
-68 18 1.9582
-68 19 1.8778
-68 20 1.9414
-67 -30 -1.5394
-67 -29 -2.7023
-67 -28 -3.8505
-67 -27 -4.8655
-67 -26 -5.4008
-67 -25 -5.6131
-67 -24 -5.8025
-67 -23 -6.022
-67 -22 -6.1631
-67 -21 -6.1131
-67 -20 -5.9948
-67 -19 -5.736
-67 -18 -5.0943
-67 -17 -3.9662
-67 -16 -2.6323
-67 -15 -1.411
-67 -14 -0.5543
-67 -13 -0.10167
-67 -12 0.061981
-67 -11 0.088704
-67 -10 0.068246
-67 -9 0.044092
-67 -8 0.022136
-67 -7 0.001746
-67 -6 -0.010331
-67 -5 -0.015198
-67 -4 -0.016587
-67 -3 -0.025142
-67 -2 -0.056218
-67 -1 -0.11892
-67 0 -0.23108
-67 1 -0.33983
-67 2 -0.36277
-67 3 -0.42695
-67 4 -0.60882
-67 5 -0.7679
-67 6 -0.72064
-67 7 -0.68481
-67 8 -0.72841
-67 9 -0.88951
-67 10 -0.89503
-67 11 -0.25068
-67 12 1.103
-67 13 2.8605
-67 14 4.0141
-67 15 4.2661
-67 16 3.9788
-67 17 3.1549
-67 18 2.1906
-67 19 2.7098
-67 20 2.9334
-66 -30 -0.8555
-66 -29 -1.666
-66 -28 -2.6433
-66 -27 -3.4923
-66 -26 -3.9732
-66 -25 -4.3514
-66 -24 -4.8442
-66 -23 -5.3196
-66 -22 -5.5077
-66 -21 -5.4641
-66 -20 -5.3471
-66 -19 -4.9425
-66 -18 -4.0218
-66 -17 -2.6748
-66 -16 -1.3712
-66 -15 -0.49154
-66 -14 -0.049711
-66 -13 0.11187
-66 -12 0.13425
-66 -11 0.10666
-66 -10 0.071796
-66 -9 0.049239
-66 -8 0.032352
-66 -7 0.012974
-66 -6 -0.004052
-66 -5 -0.013534
-66 -4 -0.018412
-66 -3 -0.025912
-66 -2 -0.057803
-66 -1 -0.13768
-66 0 -0.31305
-66 1 -0.5088
-66 2 -0.5389
-66 3 -0.65053
-66 4 -0.8676
-66 5 -0.92652
-66 6 -0.83378
-66 7 -0.76919
-66 8 -0.79559
-66 9 -0.95073
-66 10 -0.95695
-66 11 -0.32921
-66 12 1.0566
-66 13 2.8107
-66 14 3.7815
-66 15 3.9491
-66 16 3.6987
-66 17 3.0298
-66 18 2.3713
-66 19 3.1021
-66 20 3.4116
-65 -30 -0.42893
-65 -29 -0.85144
-65 -28 -1.3908
-65 -27 -1.8779
-65 -26 -2.227
-65 -25 -2.5656
-65 -24 -3.0952
-65 -23 -3.7183
-65 -22 -3.9731
-65 -21 -3.9788
-65 -20 -3.9656
-65 -19 -3.6284
-65 -18 -2.7488
-65 -17 -1.5209
-65 -16 -0.55467
-65 -15 -0.057227
-65 -14 0.13265
-65 -13 0.16695
-65 -12 0.13142
-65 -11 0.081865
-65 -10 0.053405
-65 -9 0.046543
-65 -8 0.037535
-65 -7 0.021327
-65 -6 0.0014006
-65 -5 -0.013386
-65 -4 -0.02182
-65 -3 -0.033082
-65 -2 -0.064445
-65 -1 -0.13569
-65 0 -0.29864
-65 1 -0.52626
-65 2 -0.70536
-65 3 -0.9694
-65 4 -1.2046
-65 5 -1.1133
-65 6 -0.9112
-65 7 -0.81497
-65 8 -0.85316
-65 9 -1.0382
-65 10 -1.0832
-65 11 -0.48025
-65 12 0.80349
-65 13 2.2288
-65 14 2.9553
-65 15 3.078
-65 16 2.9305
-65 17 2.6081
-65 18 2.4607
-65 19 3.2188
-65 20 3.4866
-64 -30 -0.19417
-64 -29 -0.33128
-64 -28 -0.50181
-64 -27 -0.70533
-64 -26 -0.90394
-64 -25 -1.103
-64 -24 -1.4228
-64 -23 -1.8455
-64 -22 -2.0919
-64 -21 -2.1888
-64 -20 -2.277
-64 -19 -2.12
-64 -18 -1.5562
-64 -17 -0.74246
-64 -16 -0.17985
-64 -15 0.063958
-64 -14 0.14498
-64 -13 0.13463
-64 -12 0.075155
-64 -11 0.022696
-64 -10 0.015502
-64 -9 0.031288
-64 -8 0.034373
-64 -7 0.022448
-64 -6 0.0046628
-64 -5 -0.01038
-64 -4 -0.023418
-64 -3 -0.041366
-64 -2 -0.069379
-64 -1 -0.1206
-64 0 -0.23875
-64 1 -0.46723
-64 2 -0.80639
-64 3 -1.175
-64 4 -1.3407
-64 5 -1.2248
-64 6 -1.0469
-64 7 -0.93228
-64 8 -0.93115
-64 9 -1.1131
-64 10 -1.1968
-64 11 -0.65861
-64 12 0.40266
-64 13 1.4535
-64 14 1.909
-64 15 1.9213
-64 16 1.7711
-64 17 1.6485
-64 18 2.0364
-64 19 3.1484
-64 20 3.3284
-63 -30 -0.016459
-63 -29 -0.04476
-63 -28 -0.074364
-63 -27 -0.1415
-63 -26 -0.2209
-63 -25 -0.29909
-63 -24 -0.41717
-63 -23 -0.59144
-63 -22 -0.75826
-63 -21 -0.89534
-63 -20 -0.9901
-63 -19 -0.9316
-63 -18 -0.67468
-63 -17 -0.31829
-63 -16 -0.083031
-63 -15 0.031213
-63 -14 0.07844
-63 -13 0.054799
-63 -12 -0.012488
-63 -11 -0.04886
-63 -10 -0.027553
-63 -9 0.0052327
-63 -8 0.020697
-63 -7 0.017555
-63 -6 0.0047621
-63 -5 -0.0068097
-63 -4 -0.022338
-63 -3 -0.048361
-63 -2 -0.077597
-63 -1 -0.11906
-63 0 -0.20678
-63 1 -0.39906
-63 2 -0.72081
-63 3 -1.0537
-63 4 -1.2462
-63 5 -1.313
-63 6 -1.2538
-63 7 -1.0937
-63 8 -1.0053
-63 9 -1.0556
-63 10 -1.0519
-63 11 -0.63156
-63 12 0.19478
-63 13 0.90894
-63 14 1.1483
-63 15 1.1043
-63 16 0.94432
-63 17 0.91985
-63 18 1.7684
-63 19 3.3253
-63 20 3.2487
-62 -30 0.089166
-62 -29 0.086779
-62 -28 0.089632
-62 -27 0.071282
-62 -26 0.049267
-62 -25 0.032737
-62 -24 0.0043055
-62 -23 -0.053905
-62 -22 -0.1398
-62 -21 -0.24065
-62 -20 -0.32004
-62 -19 -0.32713
-62 -18 -0.25139
-62 -17 -0.15573
-62 -16 -0.093164
-62 -15 -0.035706
-62 -14 -0.01628
-62 -13 -0.05698
-62 -12 -0.11496
-62 -11 -0.10781
-62 -10 -0.064684
-62 -9 -0.029434
-62 -8 -0.0099603
-62 -7 -0.0011785
-62 -6 -0.0044537
-62 -5 -0.013885
-62 -4 -0.032229
-62 -3 -0.065606
-62 -2 -0.10266
-62 -1 -0.14586
-62 0 -0.21284
-62 1 -0.34409
-62 2 -0.56537
-62 3 -0.8373
-62 4 -1.1477
-62 5 -1.4556
-62 6 -1.482
-62 7 -1.2308
-62 8 -1.0555
-62 9 -0.98239
-62 10 -0.89344
-62 11 -0.56903
-62 12 0.054995
-62 13 0.60215
-62 14 0.76976
-62 15 0.7915
-62 16 0.802
-62 17 1.1402
-62 18 2.3611
-62 19 3.8007
-62 20 3.214
-61 -30 0.12383
-61 -29 0.12857
-61 -28 0.14039
-61 -27 0.14147
-61 -26 0.14097
-61 -25 0.14402
-61 -24 0.1425
-61 -23 0.12725
-61 -22 0.093236
-61 -21 0.037362
-61 -20 -0.039956
-61 -19 -0.11186
-61 -18 -0.13212
-61 -17 -0.11838
-61 -16 -0.10656
-61 -15 -0.098726
-61 -14 -0.1326
-61 -13 -0.19663
-61 -12 -0.21952
-61 -11 -0.1717
-61 -10 -0.11109
-61 -9 -0.072491
-61 -8 -0.053455
-61 -7 -0.037167
-61 -6 -0.026954
-61 -5 -0.032065
-61 -4 -0.054809
-61 -3 -0.10155
-61 -2 -0.16171
-61 -1 -0.22098
-61 0 -0.28332
-61 1 -0.37162
-61 2 -0.50648
-61 3 -0.7171
-61 4 -1.0753
-61 5 -1.4651
-61 6 -1.4902
-61 7 -1.2184
-61 8 -1.0137
-61 9 -0.88463
-61 10 -0.72739
-61 11 -0.40011
-61 12 0.072255
-61 13 0.35924
-61 14 0.52689
-61 15 0.91747
-61 16 1.4632
-61 17 2.3596
-61 18 3.6242
-61 19 4.3685
-61 20 3.1924
-60 -30 0.12015
-60 -29 0.12566
-60 -28 0.1423
-60 -27 0.15391
-60 -26 0.16205
-60 -25 0.16991
-60 -24 0.17587
-60 -23 0.17726
-60 -22 0.16952
-60 -21 0.14328
-60 -20 0.078524
-60 -19 -0.02318
-60 -18 -0.093617
-60 -17 -0.090356
-60 -16 -0.11304
-60 -15 -0.18979
-60 -14 -0.28319
-60 -13 -0.35111
-60 -12 -0.32941
-60 -11 -0.24812
-60 -10 -0.16595
-60 -9 -0.11999
-60 -8 -0.10334
-60 -7 -0.085933
-60 -6 -0.066421
-60 -5 -0.061848
-60 -4 -0.07821
-60 -3 -0.13303
-60 -2 -0.22729
-60 -1 -0.33129
-60 0 -0.42884
-60 1 -0.51471
-60 2 -0.58938
-60 3 -0.7211
-60 4 -0.99564
-60 5 -1.2593
-60 6 -1.2324
-60 7 -1.0495
-60 8 -0.84885
-60 9 -0.60998
-60 10 -0.32296
-60 11 0.013899
-60 12 0.34949
-60 13 0.62076
-60 14 1.0656
-60 15 1.8948
-60 16 2.7913
-60 17 3.7621
-60 18 4.5949
-60 19 4.5602
-60 20 3.0512
-59 -30 0.092033
-59 -29 0.095719
-59 -28 0.11656
-59 -27 0.13464
-59 -26 0.14739
-59 -25 0.15712
-59 -24 0.16481
-59 -23 0.16958
-59 -22 0.17001
-59 -21 0.16087
-59 -20 0.12087
-59 -19 0.034236
-59 -18 -0.039914
-59 -17 -0.042127
-59 -16 -0.11363
-59 -15 -0.28133
-59 -14 -0.41792
-59 -13 -0.44517
-59 -12 -0.3868
-59 -11 -0.30266
-59 -10 -0.21833
-59 -9 -0.17407
-59 -8 -0.16503
-59 -7 -0.15195
-59 -6 -0.1314
-59 -5 -0.11023
-59 -4 -0.10549
-59 -3 -0.14994
-59 -2 -0.25954
-59 -1 -0.41586
-59 0 -0.58593
-59 1 -0.70292
-59 2 -0.7342
-59 3 -0.77883
-59 4 -0.89721
-59 5 -1.0022
-59 6 -0.97343
-59 7 -0.84129
-59 8 -0.53249
-59 9 -0.013193
-59 10 0.45851
-59 11 0.71595
-59 12 0.92909
-59 13 1.3176
-59 14 2.0374
-59 15 2.9432
-59 16 3.8421
-59 17 4.5791
-59 18 4.8966
-59 19 4.4725
-59 20 2.9188
-58 -30 0.048993
-58 -29 0.046868
-58 -28 0.066393
-58 -27 0.084086
-58 -26 0.095596
-58 -25 0.10477
-58 -24 0.10986
-58 -23 0.10473
-58 -22 0.09583
-58 -21 0.097743
-58 -20 0.092695
-58 -19 0.062715
-58 -18 0.025503
-58 -17 0.0077891
-58 -16 -0.087163
-58 -15 -0.28375
-58 -14 -0.45699
-58 -13 -0.47059
-58 -12 -0.40016
-58 -11 -0.33531
-58 -10 -0.27942
-58 -9 -0.25367
-58 -8 -0.25867
-58 -7 -0.24826
-58 -6 -0.21464
-58 -5 -0.17367
-58 -4 -0.14981
-58 -3 -0.17658
-58 -2 -0.28061
-58 -1 -0.45685
-58 0 -0.66658
-58 1 -0.81329
-58 2 -0.8482
-58 3 -0.87594
-58 4 -0.91694
-58 5 -0.91427
-58 6 -0.84986
-58 7 -0.63496
-58 8 -0.060846
-58 9 0.81414
-58 10 1.4455
-58 11 1.6915
-58 12 1.8838
-58 13 2.2921
-58 14 2.9484
-58 15 3.6603
-58 16 4.3147
-58 17 4.7969
-58 18 4.885
-58 19 4.4133
-58 20 2.8846
-57 -30 -0.0043833
-57 -29 -0.020835
-57 -28 -0.012941
-57 -27 -0.0063233
-57 -26 -0.00936
-57 -25 -0.010646
-57 -24 -0.0096736
-57 -23 -0.032726
-57 -22 -0.06162
-57 -21 -0.040886
-57 -20 -0.0052784
-57 -19 0.023508
-57 -18 0.029838
-57 -17 0.0031298
-57 -16 -0.10101
-57 -15 -0.28591
-57 -14 -0.45017
-57 -13 -0.47165
-57 -12 -0.41784
-57 -11 -0.37142
-57 -10 -0.34134
-57 -9 -0.34548
-57 -8 -0.36608
-57 -7 -0.34888
-57 -6 -0.30358
-57 -5 -0.25337
-57 -4 -0.21671
-57 -3 -0.22263
-57 -2 -0.30643
-57 -1 -0.48067
-57 0 -0.69173
-57 1 -0.84678
-57 2 -0.92448
-57 3 -0.98643
-57 4 -1.0242
-57 5 -0.95749
-57 6 -0.82339
-57 7 -0.44339
-57 8 0.42465
-57 9 1.4907
-57 10 2.2378
-57 11 2.6295
-57 12 2.8938
-57 13 3.2258
-57 14 3.6529
-57 15 4.0828
-57 16 4.4217
-57 17 4.7333
-57 18 4.752
-57 19 4.3252
-57 20 2.8466
-56 -30 -0.076045
-56 -29 -0.13008
-56 -28 -0.14052
-56 -27 -0.13979
-56 -26 -0.15817
-56 -25 -0.1789
-56 -24 -0.17991
-56 -23 -0.20856
-56 -22 -0.24349
-56 -21 -0.20772
-56 -20 -0.15548
-56 -19 -0.11658
-56 -18 -0.078465
-56 -17 -0.096954
-56 -16 -0.21096
-56 -15 -0.38011
-56 -14 -0.48297
-56 -13 -0.48356
-56 -12 -0.44406
-56 -11 -0.41731
-56 -10 -0.41174
-56 -9 -0.43476
-56 -8 -0.44312
-56 -7 -0.4222
-56 -6 -0.38923
-56 -5 -0.34317
-56 -4 -0.30186
-56 -3 -0.29303
-56 -2 -0.36392
-56 -1 -0.55223
-56 0 -0.76763
-56 1 -0.92033
-56 2 -1.0129
-56 3 -1.0691
-56 4 -1.0732
-56 5 -1.008
-56 6 -0.85711
-56 7 -0.36669
-56 8 0.67235
-56 9 1.8082
-56 10 2.6431
-56 11 3.1534
-56 12 3.4446
-56 13 3.7053
-56 14 4.0132
-56 15 4.2692
-56 16 4.4273
-56 17 4.6062
-56 18 4.562
-56 19 4.1446
-56 20 2.741
-55 -30 -0.1584
-55 -29 -0.28673
-55 -28 -0.32707
-55 -27 -0.3223
-55 -26 -0.33686
-55 -25 -0.35423
-55 -24 -0.34232
-55 -23 -0.35001
-55 -22 -0.37645
-55 -21 -0.37293
-55 -20 -0.35818
-55 -19 -0.34484
-55 -18 -0.29329
-55 -17 -0.30043
-55 -16 -0.39959
-55 -15 -0.53076
-55 -14 -0.54981
-55 -13 -0.49814
-55 -12 -0.45856
-55 -11 -0.4548
-55 -10 -0.47409
-55 -9 -0.51499
-55 -8 -0.50465
-55 -7 -0.46438
-55 -6 -0.4397
-55 -5 -0.42039
-55 -4 -0.40148
-55 -3 -0.39117
-55 -2 -0.45385
-55 -1 -0.66
-55 0 -0.87244
-55 1 -1.0069
-55 2 -1.0933
-55 3 -1.1329
-55 4 -1.1201
-55 5 -1.0764
-55 6 -0.93474
-55 7 -0.4389
-55 8 0.59718
-55 9 1.7955
-55 10 2.7896
-55 11 3.3685
-55 12 3.6382
-55 13 3.8498
-55 14 4.1102
-55 15 4.308
-55 16 4.4142
-55 17 4.4632
-55 18 4.3366
-55 19 3.9521
-55 20 2.6259
-54 -30 -0.23673
-54 -29 -0.45614
-54 -28 -0.55766
-54 -27 -0.56877
-54 -26 -0.58252
-54 -25 -0.56867
-54 -24 -0.49046
-54 -23 -0.4413
-54 -22 -0.4467
-54 -21 -0.47912
-54 -20 -0.51966
-54 -19 -0.55743
-54 -18 -0.5578
-54 -17 -0.55083
-54 -16 -0.56222
-54 -15 -0.60206
-54 -14 -0.5626
-54 -13 -0.48627
-54 -12 -0.44941
-54 -11 -0.45643
-54 -10 -0.49355
-54 -9 -0.54404
-54 -8 -0.54641
-54 -7 -0.49789
-54 -6 -0.47162
-54 -5 -0.47392
-54 -4 -0.47748
-54 -3 -0.46221
-54 -2 -0.51274
-54 -1 -0.70162
-54 0 -0.88172
-54 1 -1.0142
-54 2 -1.1102
-54 3 -1.1597
-54 4 -1.1772
-54 5 -1.1405
-54 6 -0.95877
-54 7 -0.44677
-54 8 0.559
-54 9 1.8468
-54 10 2.9677
-54 11 3.5174
-54 12 3.7174
-54 13 3.8601
-54 14 4.0384
-54 15 4.1995
-54 16 4.3018
-54 17 4.2636
-54 18 4.0996
-54 19 3.7906
-54 20 2.5569
-53 -30 -0.3131
-53 -29 -0.61979
-53 -28 -0.81878
-53 -27 -0.88681
-53 -26 -0.89746
-53 -25 -0.82687
-53 -24 -0.66126
-53 -23 -0.53581
-53 -22 -0.49412
-53 -21 -0.51875
-53 -20 -0.59468
-53 -19 -0.71132
-53 -18 -0.78511
-53 -17 -0.73343
-53 -16 -0.63211
-53 -15 -0.56394
-53 -14 -0.49923
-53 -13 -0.44914
-53 -12 -0.42487
-53 -11 -0.43056
-53 -10 -0.47489
-53 -9 -0.53733
-53 -8 -0.566
-53 -7 -0.52513
-53 -6 -0.49596
-53 -5 -0.49803
-53 -4 -0.4932
-53 -3 -0.47414
-53 -2 -0.50996
-53 -1 -0.64944
-53 0 -0.81777
-53 1 -0.97619
-53 2 -1.0923
-53 3 -1.1634
-53 4 -1.1878
-53 5 -1.0829
-53 6 -0.71123
-53 7 0.028875
-53 8 1.1442
-53 9 2.4407
-53 10 3.3216
-53 11 3.6669
-53 12 3.774
-53 13 3.8525
-53 14 3.9096
-53 15 3.9572
-53 16 4.0502
-53 17 4.0042
-53 18 3.9148
-53 19 3.6839
-53 20 2.4752
-52 -30 -0.40307
-52 -29 -0.8001
-52 -28 -1.0937
-52 -27 -1.2193
-52 -26 -1.2059
-52 -25 -1.0621
-52 -24 -0.8346
-52 -23 -0.64694
-52 -22 -0.55185
-52 -21 -0.53909
-52 -20 -0.6156
-52 -19 -0.77178
-52 -18 -0.892
-52 -17 -0.83981
-52 -16 -0.67421
-52 -15 -0.52469
-52 -14 -0.4387
-52 -13 -0.40445
-52 -12 -0.38224
-52 -11 -0.38254
-52 -10 -0.43358
-52 -9 -0.51781
-52 -8 -0.58008
-52 -7 -0.55378
-52 -6 -0.52342
-52 -5 -0.51611
-52 -4 -0.50037
-52 -3 -0.47757
-52 -2 -0.50244
-52 -1 -0.60459
-52 0 -0.75869
-52 1 -0.92261
-52 2 -1.0525
-52 3 -1.1207
-52 4 -1.0707
-52 5 -0.753
-52 6 -0.0036221
-52 7 1.0866
-52 8 2.153
-52 9 3.0698
-52 10 3.5821
-52 11 3.7461
-52 12 3.7769
-52 13 3.7989
-52 14 3.7356
-52 15 3.6304
-52 16 3.6801
-52 17 3.6893
-52 18 3.7108
-52 19 3.5448
-52 20 2.3569
-51 -30 -0.47309
-51 -29 -0.94317
-51 -28 -1.2729
-51 -27 -1.3985
-51 -26 -1.388
-51 -25 -1.2364
-51 -24 -1.0078
-51 -23 -0.78724
-51 -22 -0.65574
-51 -21 -0.60742
-51 -20 -0.6526
-51 -19 -0.79487
-51 -18 -0.92751
-51 -17 -0.92704
-51 -16 -0.79447
-51 -15 -0.6103
-51 -14 -0.46504
-51 -13 -0.38562
-51 -12 -0.34295
-51 -11 -0.33897
-51 -10 -0.38754
-51 -9 -0.46888
-51 -8 -0.53873
-51 -7 -0.5529
-51 -6 -0.53952
-51 -5 -0.53036
-51 -4 -0.51768
-51 -3 -0.50163
-51 -2 -0.52472
-51 -1 -0.60821
-51 0 -0.73771
-51 1 -0.88596
-51 2 -1.0069
-51 3 -1.028
-51 4 -0.79887
-51 5 -0.11426
-51 6 0.99049
-51 7 2.1027
-51 8 2.8831
-51 9 3.3834
-51 10 3.6445
-51 11 3.7191
-51 12 3.6988
-51 13 3.6318
-51 14 3.4397
-51 15 3.1865
-51 16 3.1912
-51 17 3.308
-51 18 3.4239
-51 19 3.2897
-51 20 2.1693
-50 -30 -0.42034
-50 -29 -0.86252
-50 -28 -1.19
-50 -27 -1.3125
-50 -26 -1.3772
-50 -25 -1.3191
-50 -24 -1.1431
-50 -23 -0.95033
-50 -22 -0.81773
-50 -21 -0.75429
-50 -20 -0.77154
-50 -19 -0.87784
-50 -18 -0.98765
-50 -17 -1.0396
-50 -16 -1.0078
-50 -15 -0.85423
-50 -14 -0.63767
-50 -13 -0.4794
-50 -12 -0.38943
-50 -11 -0.36323
-50 -10 -0.38849
-50 -9 -0.43888
-50 -8 -0.4928
-50 -7 -0.53251
-50 -6 -0.54469
-50 -5 -0.54901
-50 -4 -0.546
-50 -3 -0.54543
-50 -2 -0.57863
-50 -1 -0.65896
-50 0 -0.77284
-50 1 -0.89638
-50 2 -0.97722
-50 3 -0.9009
-50 4 -0.41592
-50 5 0.62649
-50 6 1.7876
-50 7 2.6442
-50 8 3.1454
-50 9 3.4348
-50 10 3.5869
-50 11 3.6134
-50 12 3.5504
-50 13 3.3874
-50 14 3.0015
-50 15 2.5721
-50 16 2.6141
-50 17 2.8222
-50 18 3.0139
-50 19 2.9372
-50 20 1.9384
-49 -30 -0.16799
-49 -29 -0.44046
-49 -28 -0.74825
-49 -27 -0.93662
-49 -26 -1.1128
-49 -25 -1.1954
-49 -24 -1.18
-49 -23 -1.1047
-49 -22 -1.0222
-49 -21 -0.9671
-49 -20 -0.97258
-49 -19 -1.0477
-49 -18 -1.1302
-49 -17 -1.2139
-49 -16 -1.2528
-49 -15 -1.1321
-49 -14 -0.88116
-49 -13 -0.67906
-49 -12 -0.54029
-49 -11 -0.47775
-49 -10 -0.47437
-49 -9 -0.48996
-49 -8 -0.51478
-49 -7 -0.55195
-49 -6 -0.58236
-49 -5 -0.60871
-49 -4 -0.61242
-49 -3 -0.61807
-49 -2 -0.65917
-49 -1 -0.73702
-49 0 -0.82975
-49 1 -0.90294
-49 2 -0.8925
-49 3 -0.66372
-49 4 0.01752
-49 5 1.1489
-49 6 2.1713
-49 7 2.8139
-49 8 3.1687
-49 9 3.374
-49 10 3.4747
-49 11 3.4544
-49 12 3.331
-49 13 3.0879
-49 14 2.6279
-49 15 2.1617
-49 16 2.2395
-49 17 2.4867
-49 18 2.6946
-49 19 2.6405
-49 20 1.7251
-48 -30 0.30632
-48 -29 0.24079
-48 -28 -0.055407
-48 -27 -0.34064
-48 -26 -0.60368
-48 -25 -0.85299
-48 -24 -1.0984
-48 -23 -1.2189
-48 -22 -1.2526
-48 -21 -1.2413
-48 -20 -1.2378
-48 -19 -1.267
-48 -18 -1.3004
-48 -17 -1.3636
-48 -16 -1.3926
-48 -15 -1.2592
-48 -14 -1.0457
-48 -13 -0.8877
-48 -12 -0.73895
-48 -11 -0.64622
-48 -10 -0.6175
-48 -9 -0.61819
-48 -8 -0.62069
-48 -7 -0.64299
-48 -6 -0.67513
-48 -5 -0.71123
-48 -4 -0.71234
-48 -3 -0.71644
-48 -2 -0.75682
-48 -1 -0.81555
-48 0 -0.84533
-48 1 -0.77962
-48 2 -0.55221
-48 3 -0.10706
-48 4 0.63826
-48 5 1.5793
-48 6 2.354
-48 7 2.839
-48 8 3.1252
-48 9 3.2986
-48 10 3.3541
-48 11 3.2503
-48 12 3.0372
-48 13 2.7343
-48 14 2.4067
-48 15 2.158
-48 16 2.2262
-48 17 2.3743
-48 18 2.5346
-48 19 2.4131
-48 20 1.5078
-47 -30 0.98555
-47 -29 1.1454
-47 -28 0.82268
-47 -27 0.36824
-47 -26 -0.069319
-47 -25 -0.49903
-47 -24 -0.95928
-47 -23 -1.3085
-47 -22 -1.4942
-47 -21 -1.5359
-47 -20 -1.5065
-47 -19 -1.4669
-47 -18 -1.4127
-47 -17 -1.3876
-47 -16 -1.3587
-47 -15 -1.2648
-47 -14 -1.1579
-47 -13 -1.069
-47 -12 -0.95107
-47 -11 -0.8521
-47 -10 -0.78887
-47 -9 -0.77498
-47 -8 -0.77038
-47 -7 -0.76678
-47 -6 -0.76853
-47 -5 -0.79114
-47 -4 -0.80111
-47 -3 -0.80961
-47 -2 -0.84
-47 -1 -0.84612
-47 0 -0.72033
-47 1 -0.3444
-47 2 0.24703
-47 3 0.86445
-47 4 1.4511
-47 5 2.0197
-47 6 2.4991
-47 7 2.848
-47 8 3.0877
-47 9 3.2377
-47 10 3.2508
-47 11 3.0501
-47 12 2.7042
-47 13 2.3872
-47 14 2.2307
-47 15 2.1927
-47 16 2.1228
-47 17 2.1479
-47 18 2.2902
-47 19 2.1659
-47 20 1.2691
-46 -30 1.6629
-46 -29 2.1035
-46 -28 1.8202
-46 -27 1.1915
-46 -26 0.50709
-46 -25 -0.13145
-46 -24 -0.75128
-46 -23 -1.3353
-46 -22 -1.6829
-46 -21 -1.7261
-46 -20 -1.6467
-46 -19 -1.5697
-46 -18 -1.4728
-46 -17 -1.3658
-46 -16 -1.2993
-46 -15 -1.294
-46 -14 -1.2873
-46 -13 -1.2411
-46 -12 -1.1479
-46 -11 -1.0437
-46 -10 -0.9433
-46 -9 -0.88775
-46 -8 -0.87981
-46 -7 -0.86793
-46 -6 -0.8385
-46 -5 -0.83336
-46 -4 -0.84742
-46 -3 -0.86443
-46 -2 -0.87103
-46 -1 -0.76263
-46 0 -0.33352
-46 1 0.50365
-46 2 1.3634
-46 3 1.9034
-46 4 2.1935
-46 5 2.3949
-46 6 2.6045
-46 7 2.8627
-46 8 3.0721
-46 9 3.1818
-46 10 3.1335
-46 11 2.8292
-46 12 2.2828
-46 13 1.8751
-46 14 1.8763
-46 15 2.0764
-46 16 2.0627
-46 17 2.069
-46 18 2.1703
-46 19 1.9969
-46 20 1.0821
-45 -30 2.1477
-45 -29 2.8244
-45 -28 2.6013
-45 -27 1.9257
-45 -26 1.138
-45 -25 0.32411
-45 -24 -0.47426
-45 -23 -1.2271
-45 -22 -1.7164
-45 -21 -1.8296
-45 -20 -1.7436
-45 -19 -1.6468
-45 -18 -1.578
-45 -17 -1.4633
-45 -16 -1.3536
-45 -15 -1.3265
-45 -14 -1.3255
-45 -13 -1.3049
-45 -12 -1.2364
-45 -11 -1.1455
-45 -10 -1.044
-45 -9 -0.98053
-45 -8 -0.94919
-45 -7 -0.91762
-45 -6 -0.88887
-45 -5 -0.86871
-45 -4 -0.87092
-45 -3 -0.87847
-45 -2 -0.8043
-45 -1 -0.45487
-45 0 0.39532
-45 1 1.5677
-45 2 2.3437
-45 3 2.6113
-45 4 2.62
-45 5 2.572
-45 6 2.6543
-45 7 2.9035
-45 8 3.0775
-45 9 3.0996
-45 10 2.9305
-45 11 2.5059
-45 12 1.8796
-45 13 1.5204
-45 14 1.6981
-45 15 2.1192
-45 16 2.3068
-45 17 2.3438
-45 18 2.3963
-45 19 2.1386
-45 20 1.1838
-44 -30 2.3893
-44 -29 3.1615
-44 -28 2.9378
-44 -27 2.3196
-44 -26 1.6252
-44 -25 0.8125
-44 -24 -0.11583
-44 -23 -0.96039
-44 -22 -1.5843
-44 -21 -1.833
-44 -20 -1.81
-44 -19 -1.7313
-44 -18 -1.7274
-44 -17 -1.6519
-44 -16 -1.5203
-44 -15 -1.4101
-44 -14 -1.3604
-44 -13 -1.3616
-44 -12 -1.3178
-44 -11 -1.229
-44 -10 -1.1384
-44 -9 -1.0874
-44 -8 -1.0259
-44 -7 -0.96804
-44 -6 -0.94413
-44 -5 -0.93532
-44 -4 -0.92911
-44 -3 -0.86281
-44 -2 -0.56214
-44 -1 0.18521
-44 0 1.3571
-44 1 2.4394
-44 2 2.9251
-44 3 2.9351
-44 4 2.754
-44 5 2.6431
-44 6 2.7851
-44 7 2.9989
-44 8 3.0695
-44 9 2.9535
-44 10 2.6495
-44 11 2.1885
-44 12 1.7199
-44 13 1.6268
-44 14 1.9327
-44 15 2.4394
-44 16 2.7327
-44 17 2.8176
-44 18 2.8178
-44 19 2.506
-44 20 1.485
-43 -30 2.4469
-43 -29 3.2293
-43 -28 2.9835
-43 -27 2.4563
-43 -26 1.914
-43 -25 1.2056
-43 -24 0.25518
-43 -23 -0.64936
-43 -22 -1.3163
-43 -21 -1.6494
-43 -20 -1.7273
-43 -19 -1.6974
-43 -18 -1.7343
-43 -17 -1.7295
-43 -16 -1.6684
-43 -15 -1.5661
-43 -14 -1.5008
-43 -13 -1.5243
-43 -12 -1.4488
-43 -11 -1.3291
-43 -10 -1.2545
-43 -9 -1.2
-43 -8 -1.114
-43 -7 -1.052
-43 -6 -1.0411
-43 -5 -1.05
-43 -4 -1.019
-43 -3 -0.79486
-43 -2 -0.12789
-43 -1 1.0055
-43 0 2.1447
-43 1 2.9453
-43 2 3.1774
-43 3 3.0051
-43 4 2.7539
-43 5 2.7831
-43 6 2.9616
-43 7 3.063
-43 8 3.0254
-43 9 2.7829
-43 10 2.3985
-43 11 2.1237
-43 12 1.9836
-43 13 2.0348
-43 14 2.3408
-43 15 2.8129
-43 16 3.1379
-43 17 3.2815
-43 18 3.2461
-43 19 2.8942
-43 20 1.7984
-42 -30 2.3583
-42 -29 3.183
-42 -28 3.0196
-42 -27 2.6082
-42 -26 2.1895
-42 -25 1.5972
-42 -24 0.70369
-42 -23 -0.26431
-42 -22 -0.9426
-42 -21 -1.286
-42 -20 -1.4801
-42 -19 -1.5316
-42 -18 -1.571
-42 -17 -1.6192
-42 -16 -1.6575
-42 -15 -1.6269
-42 -14 -1.595
-42 -13 -1.6548
-42 -12 -1.5905
-42 -11 -1.4711
-42 -10 -1.3979
-42 -9 -1.3074
-42 -8 -1.2235
-42 -7 -1.2072
-42 -6 -1.2544
-42 -5 -1.2832
-42 -4 -1.1879
-42 -3 -0.74571
-42 -2 0.26068
-42 -1 1.5951
-42 0 2.6008
-42 1 3.1467
-42 2 3.2191
-42 3 2.9889
-42 4 2.7792
-42 5 2.9069
-42 6 3.0499
-42 7 3.043
-42 8 2.8848
-42 9 2.5773
-42 10 2.2173
-42 11 2.1879
-42 12 2.3047
-42 13 2.5156
-42 14 2.7668
-42 15 3.1058
-42 16 3.4134
-42 17 3.5407
-42 18 3.5299
-42 19 3.2691
-42 20 2.1294
-41 -30 2.2265
-41 -29 3.1462
-41 -28 3.153
-41 -27 2.8992
-41 -26 2.5991
-41 -25 2.1148
-41 -24 1.3523
-41 -23 0.40919
-41 -22 -0.30109
-41 -21 -0.69696
-41 -20 -1.0513
-41 -19 -1.2694
-41 -18 -1.3337
-41 -17 -1.3898
-41 -16 -1.4581
-41 -15 -1.5003
-41 -14 -1.5037
-41 -13 -1.5581
-41 -12 -1.5538
-41 -11 -1.5216
-41 -10 -1.4999
-41 -9 -1.4257
-41 -8 -1.3804
-41 -7 -1.428
-41 -6 -1.5374
-41 -5 -1.5589
-41 -4 -1.3705
-41 -3 -0.72546
-41 -2 0.48417
-41 -1 1.89
-41 0 2.7695
-41 1 3.1598
-41 2 3.1797
-41 3 2.9731
-41 4 2.8389
-41 5 2.9548
-41 6 3.0075
-41 7 2.8701
-41 8 2.5233
-41 9 2.2201
-41 10 2.0712
-41 11 2.228
-41 12 2.5006
-41 13 2.775
-41 14 3.0338
-41 15 3.342
-41 16 3.62
-41 17 3.7035
-41 18 3.8046
-41 19 3.5567
-41 20 2.2986
-40 -30 2.2233
-40 -29 3.2483
-40 -28 3.3941
-40 -27 3.2375
-40 -26 3.049
-40 -25 2.6639
-40 -24 2.0916
-40 -23 1.354
-40 -22 0.65257
-40 -21 0.17016
-40 -20 -0.37638
-40 -19 -0.82161
-40 -18 -0.99777
-40 -17 -1.0513
-40 -16 -1.0617
-40 -15 -1.0777
-40 -14 -1.1175
-40 -13 -1.2068
-40 -12 -1.3149
-40 -11 -1.4279
-40 -10 -1.5176
-40 -9 -1.5323
-40 -8 -1.5459
-40 -7 -1.5974
-40 -6 -1.6576
-40 -5 -1.601
-40 -4 -1.2878
-40 -3 -0.46607
-40 -2 0.9126
-40 -1 2.2061
-40 0 2.8977
-40 1 3.1728
-40 2 3.1669
-40 3 3.0181
-40 4 2.9167
-40 5 2.966
-40 6 2.9272
-40 7 2.6429
-40 8 2.1539
-40 9 1.9458
-40 10 2.0864
-40 11 2.4022
-40 12 2.7651
-40 13 2.9637
-40 14 3.236
-40 15 3.5454
-40 16 3.7601
-40 17 3.8924
-40 18 4.0149
-40 19 3.7218
-40 20 2.4003
-39 -30 2.2732
-39 -29 3.3882
-39 -28 3.6267
-39 -27 3.4998
-39 -26 3.3689
-39 -25 3.0907
-39 -24 2.6947
-39 -23 2.2226
-39 -22 1.6897
-39 -21 1.1408
-39 -20 0.42456
-39 -19 -0.2288
-39 -18 -0.45978
-39 -17 -0.40806
-39 -16 -0.28795
-39 -15 -0.082465
-39 -14 -0.073501
-39 -13 -0.37365
-39 -12 -0.84587
-39 -11 -1.2461
-39 -10 -1.5109
-39 -9 -1.6447
-39 -8 -1.6927
-39 -7 -1.6871
-39 -6 -1.6471
-39 -5 -1.4542
-39 -4 -0.95713
-39 -3 0.062983
-39 -2 1.4721
-39 -1 2.5452
-39 0 3.0718
-39 1 3.2192
-39 2 3.1598
-39 3 3.049
-39 4 2.9511
-39 5 2.939
-39 6 2.8349
-39 7 2.4885
-39 8 2.0651
-39 9 2.0045
-39 10 2.3354
-39 11 2.7427
-39 12 3.1215
-39 13 3.3273
-39 14 3.5173
-39 15 3.7115
-39 16 3.8123
-39 17 3.9787
-39 18 4.1545
-39 19 3.9171
-39 20 2.6251
-38 -30 2.0853
-38 -29 3.3114
-38 -28 3.7595
-38 -27 3.7877
-38 -26 3.6334
-38 -25 3.3843
-38 -24 3.1121
-38 -23 2.8541
-38 -22 2.5261
-38 -21 2.0102
-38 -20 1.2813
-38 -19 0.65721
-38 -18 0.4882
-38 -17 0.69051
-38 -16 1.0072
-38 -15 1.4921
-38 -14 1.555
-38 -13 0.98086
-38 -12 0.004938
-38 -11 -0.83703
-38 -10 -1.3801
-38 -9 -1.7038
-38 -8 -1.808
-38 -7 -1.7535
-38 -6 -1.6137
-38 -5 -1.2243
-38 -4 -0.41841
-38 -3 0.81998
-38 -2 2.0728
-38 -1 2.8959
-38 0 3.2329
-38 1 3.2401
-38 2 3.1052
-38 3 2.9745
-38 4 2.8723
-38 5 2.8291
-38 6 2.7138
-38 7 2.4161
-38 8 2.177
-38 9 2.23
-38 10 2.5684
-38 11 2.9609
-38 12 3.3501
-38 13 3.6504
-38 14 3.7992
-38 15 3.8623
-38 16 3.8434
-38 17 4.0041
-38 18 4.262
-38 19 4.0848
-38 20 2.8114
-37 -30 1.7244
-37 -29 3.078
-37 -28 3.7961
-37 -27 3.9585
-37 -26 3.7926
-37 -25 3.5666
-37 -24 3.3889
-37 -23 3.2668
-37 -22 3.1004
-37 -21 2.7463
-37 -20 2.2352
-37 -19 1.8089
-37 -18 1.6135
-37 -17 1.869
-37 -16 2.4009
-37 -15 2.8735
-37 -14 2.9067
-37 -13 2.3378
-37 -12 1.2411
-37 -11 0.054042
-37 -10 -0.90065
-37 -9 -1.5319
-37 -8 -1.782
-37 -7 -1.7302
-37 -6 -1.4867
-37 -5 -0.93805
-37 -4 0.13241
-37 -3 1.4585
-37 -2 2.4824
-37 -1 3.1051
-37 0 3.2895
-37 1 3.1663
-37 2 2.9525
-37 3 2.8115
-37 4 2.7404
-37 5 2.6828
-37 6 2.5734
-37 7 2.3214
-37 8 2.2103
-37 9 2.3852
-37 10 2.6678
-37 11 3.0833
-37 12 3.6211
-37 13 4.0026
-37 14 4.0809
-37 15 4.0026
-37 16 3.8734
-37 17 3.9839
-37 18 4.1889
-37 19 4.1043
-37 20 2.9235
-36 -30 1.5065
-36 -29 2.9264
-36 -28 3.7636
-36 -27 3.9924
-36 -26 3.8595
-36 -25 3.6796
-36 -24 3.5668
-36 -23 3.5189
-36 -22 3.4313
-36 -21 3.1776
-36 -20 2.8744
-36 -19 2.5733
-36 -18 2.3228
-36 -17 2.6832
-36 -16 3.2487
-36 -15 3.6042
-36 -14 3.6358
-36 -13 3.285
-36 -12 2.5124
-36 -11 1.3954
-36 -10 0.13039
-36 -9 -0.8879
-36 -8 -1.3562
-36 -7 -1.3673
-36 -6 -1.0796
-36 -5 -0.46629
-36 -4 0.63424
-36 -3 1.9079
-36 -2 2.747
-36 -1 3.1918
-36 0 3.2485
-36 1 3.0118
-36 2 2.7799
-36 3 2.6174
-36 4 2.5343
-36 5 2.4952
-36 6 2.4168
-36 7 2.2202
-36 8 2.2697
-36 9 2.5721
-36 10 2.8708
-36 11 3.2848
-36 12 3.8498
-36 13 4.278
-36 14 4.3602
-36 15 4.2214
-36 16 4.0064
-36 17 4.0543
-36 18 4.2442
-36 19 4.186
-36 20 3.0524
-35 -30 1.4458
-35 -29 2.8524
-35 -28 3.6989
-35 -27 3.9557
-35 -26 3.9272
-35 -25 3.8358
-35 -24 3.7497
-35 -23 3.6905
-35 -22 3.555
-35 -21 3.2789
-35 -20 3.1695
-35 -19 3.0993
-35 -18 3.044
-35 -17 3.3152
-35 -16 3.6615
-35 -15 3.8696
-35 -14 3.8975
-35 -13 3.7583
-35 -12 3.4124
-35 -11 2.7391
-35 -10 1.669
-35 -9 0.46462
-35 -8 -0.1801
-35 -7 -0.16563
-35 -6 0.13943
-35 -5 0.67316
-35 -4 1.5409
-35 -3 2.4155
-35 -2 2.9552
-35 -1 3.2281
-35 0 3.1964
-35 1 2.8945
-35 2 2.6736
-35 3 2.4995
-35 4 2.3588
-35 5 2.291
-35 6 2.2579
-35 7 2.2613
-35 8 2.5441
-35 9 2.956
-35 10 3.2914
-35 11 3.6518
-35 12 4.0957
-35 13 4.4744
-35 14 4.5784
-35 15 4.478
-35 16 4.2468
-35 17 4.198
-35 18 4.3219
-35 19 4.2017
-35 20 3.0208
-34 -30 1.5224
-34 -29 2.8091
-34 -28 3.6519
-34 -27 3.9678
-34 -26 4.0687
-34 -25 4.0774
-34 -24 4
-34 -23 3.8755
-34 -22 3.6245
-34 -21 3.2845
-34 -20 3.3108
-34 -19 3.4424
-34 -18 3.5557
-34 -17 3.7207
-34 -16 3.8601
-34 -15 3.8814
-34 -14 3.8326
-34 -13 3.8738
-34 -12 3.8626
-34 -11 3.6668
-34 -10 3.1178
-34 -9 2.2441
-34 -8 1.6766
-34 -7 1.8143
-34 -6 2.091
-34 -5 2.2833
-34 -4 2.5349
-34 -3 2.9136
-34 -2 3.1505
-34 -1 3.2612
-34 0 3.1678
-34 1 2.8133
-34 2 2.5753
-34 3 2.4146
-34 4 2.2101
-34 5 2.0505
-34 6 2.0631
-34 7 2.3836
-34 8 2.9384
-34 9 3.4025
-34 10 3.7492
-34 11 4.0361
-34 12 4.3021
-34 13 4.542
-34 14 4.6452
-34 15 4.5799
-34 16 4.365
-34 17 4.2708
-34 18 4.3063
-34 19 4.106
-34 20 2.8946
-33 -30 1.7548
-33 -29 2.8703
-33 -28 3.6839
-33 -27 4.0889
-33 -26 4.2607
-33 -25 4.3323
-33 -24 4.2751
-33 -23 4.1084
-33 -22 3.8337
-33 -21 3.5468
-33 -20 3.5135
-33 -19 3.6355
-33 -18 3.7963
-33 -17 3.9374
-33 -16 3.991
-33 -15 3.8777
-33 -14 3.7303
-33 -13 3.9057
-33 -12 4.0765
-33 -11 4.1627
-33 -10 4.0331
-33 -9 3.6067
-33 -8 3.255
-33 -7 3.3667
-33 -6 3.4876
-33 -5 3.4198
-33 -4 3.3175
-33 -3 3.3778
-33 -2 3.4182
-33 -1 3.3482
-33 0 3.1382
-33 1 2.6933
-33 2 2.4342
-33 3 2.3283
-33 4 2.1553
-33 5 1.9596
-33 6 2.0143
-33 7 2.496
-33 8 3.2347
-33 9 3.7255
-33 10 4.046
-33 11 4.2972
-33 12 4.471
-33 13 4.6333
-33 14 4.6831
-33 15 4.5863
-33 16 4.3683
-33 17 4.2391
-33 18 4.2352
-33 19 4.0473
-33 20 2.8476
-32 -30 1.9194
-32 -29 2.9252
-32 -28 3.7044
-32 -27 4.198
-32 -26 4.4126
-32 -25 4.5099
-32 -24 4.4663
-32 -23 4.293
-32 -22 4.0442
-32 -21 3.7994
-32 -20 3.6922
-32 -19 3.7496
-32 -18 3.9095
-32 -17 4.0483
-32 -16 4.0959
-32 -15 4.0545
-32 -14 4.0284
-32 -13 4.1431
-32 -12 4.2485
-32 -11 4.4228
-32 -10 4.4644
-32 -9 4.2446
-32 -8 4.0174
-32 -7 4.1006
-32 -6 4.0996
-32 -5 3.917
-32 -4 3.713
-32 -3 3.6459
-32 -2 3.5784
-32 -1 3.3736
-32 0 3.0523
-32 1 2.535
-32 2 2.2742
-32 3 2.2805
-32 4 2.3028
-32 5 2.207
-32 6 2.2945
-32 7 2.7104
-32 8 3.3901
-32 9 3.8718
-32 10 4.1583
-32 11 4.3965
-32 12 4.5904
-32 13 4.7213
-32 14 4.7108
-32 15 4.5661
-32 16 4.3112
-32 17 4.1337
-32 18 4.1278
-32 19 3.9668
-32 20 2.7875
-31 -30 1.7237
-31 -29 2.5674
-31 -28 3.3617
-31 -27 3.9654
-31 -26 4.1998
-31 -25 4.2588
-31 -24 4.2378
-31 -23 4.1251
-31 -22 3.9322
-31 -21 3.717
-31 -20 3.5941
-31 -19 3.5979
-31 -18 3.7129
-31 -17 3.8359
-31 -16 3.9029
-31 -15 3.9652
-31 -14 4.0772
-31 -13 4.1845
-31 -12 4.2466
-31 -11 4.3349
-31 -10 4.3596
-31 -9 4.2616
-31 -8 4.1931
-31 -7 4.194
-31 -6 4.0854
-31 -5 3.8849
-31 -4 3.6937
-31 -3 3.5797
-31 -2 3.4159
-31 -1 3.0982
-31 0 2.7132
-31 1 2.1924
-31 2 1.9616
-31 3 2.0459
-31 4 2.2288
-31 5 2.279
-31 6 2.3935
-31 7 2.6815
-31 8 3.2329
-31 9 3.7071
-31 10 3.962
-31 11 4.2152
-31 12 4.425
-31 13 4.4754
-31 14 4.4321
-31 15 4.2325
-31 16 3.9774
-31 17 3.7541
-31 18 3.7187
-31 19 3.5619
-31 20 2.4793
-30 -30 1.0676
-30 -29 1.6834
-30 -28 2.3373
-30 -27 2.8158
-30 -26 2.9685
-30 -25 2.9681
-30 -24 2.9797
-30 -23 2.9435
-30 -22 2.8307
-30 -21 2.6757
-30 -20 2.5782
-30 -19 2.5503
-30 -18 2.5967
-30 -17 2.6724
-30 -16 2.7429
-30 -15 2.835
-30 -14 2.9658
-30 -13 3.0621
-30 -12 3.1052
-30 -11 3.1186
-30 -10 3.1183
-30 -9 3.1022
-30 -8 3.0889
-30 -7 3.0424
-30 -6 2.9095
-30 -5 2.7652
-30 -4 2.636
-30 -3 2.5432
-30 -2 2.368
-30 -1 2.033
-30 0 1.6684
-30 1 1.2794
-30 2 1.1508
-30 3 1.2632
-30 4 1.428
-30 5 1.5033
-30 6 1.5894
-30 7 1.7642
-30 8 2.1234
-30 9 2.5282
-30 10 2.7526
-30 11 2.9577
-30 12 3.076
-30 13 3.0819
-30 14 3.0397
-30 15 2.8878
-30 16 2.6891
-30 17 2.5047
-30 18 2.4967
-30 19 2.4002
-30 20 1.605
