-80 -30 1.5894
-80 -29 2.0585
-80 -28 2.0733
-80 -27 2.2622
-80 -26 2.4541
-80 -25 2.6247
-80 -24 2.7531
-80 -23 2.8355
-80 -22 2.825
-80 -21 2.6827
-80 -20 2.4765
-80 -19 2.3267
-80 -18 2.3994
-80 -17 2.7081
-80 -16 3.0229
-80 -15 3.2049
-80 -14 3.3222
-80 -13 3.425
-80 -12 3.3278
-80 -11 2.7137
-80 -10 1.5881
-80 -9 0.2869
-80 -8 -0.5478
-80 -7 -0.90226
-80 -6 -0.99851
-80 -5 -1.1308
-80 -4 -1.197
-80 -3 -1.1137
-80 -2 -1.086
-80 -1 -1.0983
-80 0 -0.83684
-80 1 -0.044485
-80 2 1.0595
-80 3 1.8067
-80 4 2.0884
-80 5 2.2049
-80 6 2.0603
-80 7 1.4416
-80 8 0.52636
-80 9 0.3354
-80 10 1.0445
-80 11 1.8334
-80 12 2.1008
-80 13 1.8974
-80 14 1.3558
-80 15 0.7379
-80 16 0.31322
-80 17 0.65821
-80 18 1.662
-80 19 2.1469
-80 20 1.3893
-79 -30 2.3133
-79 -29 3.0258
-79 -28 3.1409
-79 -27 3.302
-79 -26 3.5128
-79 -25 3.7431
-79 -24 3.9404
-79 -23 4.0806
-79 -22 4.0915
-79 -21 3.9506
-79 -20 3.7359
-79 -19 3.4957
-79 -18 3.3979
-79 -17 3.5881
-79 -16 3.8945
-79 -15 4.1267
-79 -14 4.1973
-79 -13 4.0497
-79 -12 3.5038
-79 -11 2.1728
-79 -10 0.49361
-79 -9 -0.99178
-79 -8 -1.7938
-79 -7 -1.9469
-79 -6 -1.6995
-79 -5 -1.5352
-79 -4 -1.6554
-79 -3 -1.7984
-79 -2 -1.9523
-79 -1 -2.1315
-79 0 -1.9363
-79 1 -0.97917
-79 2 0.42488
-79 3 1.5838
-79 4 2.3153
-79 5 2.6911
-79 6 2.5753
-79 7 1.8084
-79 8 0.68137
-79 9 0.51515
-79 10 1.544
-79 11 2.712
-79 12 3.2019
-79 13 3.0028
-79 14 2.3486
-79 15 1.4861
-79 16 0.79883
-79 17 0.86875
-79 18 1.8426
-79 19 2.6065
-79 20 1.604
-78 -30 2.6223
-78 -29 3.4625
-78 -28 3.6183
-78 -27 3.6661
-78 -26 3.8033
-78 -25 4.0601
-78 -24 4.3227
-78 -23 4.503
-78 -22 4.5761
-78 -21 4.5397
-78 -20 4.4068
-78 -19 4.1667
-78 -18 3.8951
-78 -17 3.7114
-78 -16 3.744
-78 -15 3.8143
-78 -14 3.5074
-78 -13 2.6691
-78 -12 1.5376
-78 -11 0.11206
-78 -10 -1.3842
-78 -9 -2.5701
-78 -8 -2.837
-78 -7 -2.3489
-78 -6 -1.7414
-78 -5 -1.2997
-78 -4 -1.3038
-78 -3 -1.5134
-78 -2 -1.8315
-78 -1 -2.32
-78 0 -2.6879
-78 1 -2.1855
-78 2 -0.95725
-78 3 0.1643
-78 4 1.0948
-78 5 1.7183
-78 6 1.7335
-78 7 1.1395
-78 8 0.34836
-78 9 0.44737
-78 10 1.626
-78 11 2.9385
-78 12 3.6412
-78 13 3.6996
-78 14 3.1913
-78 15 2.2917
-78 16 1.4219
-78 17 1.0005
-78 18 1.5834
-78 19 2.317
-78 20 1.1779
-77 -30 2.7609
-77 -29 3.6576
-77 -28 3.7738
-77 -27 3.755
-77 -26 3.8148
-77 -25 4.0562
-77 -24 4.3493
-77 -23 4.5725
-77 -22 4.7211
-77 -21 4.8085
-77 -20 4.7694
-77 -19 4.578
-77 -18 4.2465
-77 -17 3.7853
-77 -16 3.288
-77 -15 2.6604
-77 -14 1.4819
-77 -13 -0.031919
-77 -12 -1.1829
-77 -11 -1.9596
-77 -10 -2.5276
-77 -9 -2.7647
-77 -8 -2.4705
-77 -7 -1.7916
-77 -6 -1.1492
-77 -5 -0.72171
-77 -4 -0.64598
-77 -3 -0.78464
-77 -2 -1.0577
-77 -1 -1.5266
-77 0 -2.1471
-77 1 -2.4004
-77 2 -2.0075
-77 3 -1.5465
-77 4 -0.91729
-77 5 -0.32665
-77 6 -0.17442
-77 7 -0.31094
-77 8 -0.33957
-77 9 0.17412
-77 10 1.2914
-77 11 2.579
-77 12 3.6643
-77 13 4.1822
-77 14 4.0093
-77 15 3.2142
-77 16 2.1351
-77 17 1.3352
-77 18 1.406
-77 19 1.7571
-77 20 0.58485
-76 -30 2.8648
-76 -29 3.8285
-76 -28 3.9845
-76 -27 3.9216
-76 -26 3.8861
-76 -25 3.9985
-76 -24 4.2571
-76 -23 4.5257
-76 -22 4.771
-76 -21 4.9884
-76 -20 5.026
-76 -19 4.8588
-76 -18 4.5264
-76 -17 3.8734
-76 -16 2.613
-76 -15 0.76219
-76 -14 -1.3294
-76 -13 -2.9702
-76 -12 -3.4053
-76 -11 -2.9831
-76 -10 -2.438
-76 -9 -1.91
-76 -8 -1.4347
-76 -7 -0.965
-76 -6 -0.52921
-76 -5 -0.27145
-76 -4 -0.22948
-76 -3 -0.31288
-76 -2 -0.4738
-76 -1 -0.75206
-76 0 -1.1951
-76 1 -1.6979
-76 2 -2.1819
-76 3 -2.6031
-76 4 -2.4205
-76 5 -1.9351
-76 6 -1.7053
-76 7 -1.5149
-76 8 -1.0291
-76 9 -0.39019
-76 10 0.44836
-76 11 1.731
-76 12 3.2728
-76 13 4.2627
-76 14 4.4149
-76 15 3.796
-76 16 2.6542
-76 17 1.6533
-76 18 1.3713
-76 19 1.335
-76 20 0.30796
-75 -30 3.0068
-75 -29 4.0427
-75 -28 4.2468
-75 -27 4.1426
-75 -26 4.0119
-75 -25 3.958
-75 -24 4.1429
-75 -23 4.4317
-75 -22 4.7606
-75 -21 5.064
-75 -20 5.1857
-75 -19 5.0613
-75 -18 4.6804
-75 -17 3.6481
-75 -16 1.3308
-75 -15 -1.5799
-75 -14 -3.8641
-75 -13 -4.7637
-75 -12 -4.0671
-75 -11 -2.6955
-75 -10 -1.5985
-75 -9 -0.94523
-75 -8 -0.59573
-75 -7 -0.36618
-75 -6 -0.16847
-75 -5 -0.062198
-75 -4 -0.062963
-75 -3 -0.12112
-75 -2 -0.21369
-75 -1 -0.36334
-75 0 -0.6087
-75 1 -0.99894
-75 2 -1.6279
-75 3 -2.3018
-75 4 -2.4416
-75 5 -2.279
-75 6 -2.0817
-75 7 -1.7822
-75 8 -1.2839
-75 9 -0.85658
-75 10 -0.42815
-75 11 0.62929
-75 12 2.4955
-75 13 3.9595
-75 14 4.4453
-75 15 4.0804
-75 16 3.0496
-75 17 2.0433
-75 18 1.5624
-75 19 1.3071
-75 20 0.4539
-74 -30 3.1554
-74 -29 4.2328
-74 -28 4.4213
-74 -27 4.2829
-74 -26 4.1169
-74 -25 4.0239
-74 -24 4.0969
-74 -23 4.3348
-74 -22 4.7173
-74 -21 5.0625
-74 -20 5.2751
-74 -19 5.283
-74 -18 4.7294
-74 -17 2.858
-74 -16 -0.60578
-74 -15 -3.8997
-74 -14 -5.5358
-74 -13 -5.2386
-74 -12 -3.5623
-74 -11 -1.9282
-74 -10 -0.88281
-74 -9 -0.37935
-74 -8 -0.19153
-74 -7 -0.11153
-74 -6 -0.04518
-74 -5 -0.0093811
-74 -4 -0.022001
-74 -3 -0.063713
-74 -2 -0.12336
-74 -1 -0.20857
-74 0 -0.34653
-74 1 -0.58314
-74 2 -0.99161
-74 3 -1.5113
-74 4 -1.8775
-74 5 -2.0423
-74 6 -1.9803
-74 7 -1.7436
-74 8 -1.4526
-74 9 -1.2293
-74 10 -1.1054
-74 11 -0.38695
-74 12 1.4422
-74 13 3.307
-74 14 4.2112
-74 15 4.1036
-74 16 3.3752
-74 17 2.5633
-74 18 1.8354
-74 19 1.331
-74 20 0.62198
-73 -30 2.9628
-73 -29 4.0398
-73 -28 4.2609
-73 -27 4.1439
-73 -26 4.0338
-73 -25 4.0183
-73 -24 4.0955
-73 -23 4.2785
-73 -22 4.6188
-73 -21 4.9242
-73 -20 5.1943
-73 -19 5.2942
-73 -18 4.1899
-73 -17 1.1554
-73 -16 -2.7704
-73 -15 -5.6165
-73 -14 -6.3242
-73 -13 -5.1315
-73 -12 -2.9472
-73 -11 -1.3022
-73 -10 -0.48517
-73 -9 -0.15509
-73 -8 -0.059643
-73 -7 -0.046464
-73 -6 -0.032317
-73 -5 -0.01974
-73 -4 -0.028194
-73 -3 -0.057062
-73 -2 -0.10064
-73 -1 -0.15922
-73 0 -0.24629
-73 1 -0.38052
-73 2 -0.58544
-73 3 -0.85755
-73 4 -1.1818
-73 5 -1.5526
-73 6 -1.8083
-73 7 -1.8178
-73 8 -1.7235
-73 9 -1.522
-73 10 -1.4263
-73 11 -0.86623
-73 12 0.58937
-73 13 2.4748
-73 14 3.7595
-73 15 3.8572
-73 16 3.379
-73 17 2.8025
-73 18 1.8688
-73 19 0.89346
-73 20 0.26756
-72 -30 1.6735
-72 -29 2.4879
-72 -28 2.9104
-72 -27 3.0304
-72 -26 3.1322
-72 -25 3.3402
-72 -24 3.6036
-72 -23 3.8866
-72 -22 4.1353
-72 -21 4.2464
-72 -20 4.3537
-72 -19 4.1762
-72 -18 2.2296
-72 -17 -1.2293
-72 -16 -4.6675
-72 -15 -6.5628
-72 -14 -6.3795
-72 -13 -4.6001
-72 -12 -2.3539
-72 -11 -0.89513
-72 -10 -0.27938
-72 -9 -0.06965
-72 -8 -0.019618
-72 -7 -0.029325
-72 -6 -0.035932
-72 -5 -0.032829
-72 -4 -0.037169
-72 -3 -0.05964
-72 -2 -0.098979
-72 -1 -0.15255
-72 0 -0.21746
-72 1 -0.29694
-72 2 -0.3869
-72 3 -0.49201
-72 4 -0.66224
-72 5 -0.96011
-72 6 -1.2841
-72 7 -1.4965
-72 8 -1.6364
-72 9 -1.4962
-72 10 -1.3075
-72 11 -0.89186
-72 12 0.14196
-72 13 1.8938
-72 14 3.4723
-72 15 3.785
-72 16 3.3845
-72 17 2.7872
-72 18 1.6456
-72 19 0.2919
-72 20 -0.16967
-71 -30 -0.56443
-71 -29 -0.47452
-71 -28 0.010373
-71 -27 0.53632
-71 -26 1.0044
-71 -25 1.4297
-71 -24 1.8089
-71 -23 2.1521
-71 -22 2.3379
-71 -21 2.2604
-71 -20 2.0273
-71 -19 1.436
-71 -18 -0.46008
-71 -17 -3.3328
-71 -16 -5.8198
-71 -15 -6.7784
-71 -14 -5.857
-71 -13 -3.6272
-71 -12 -1.6253
-71 -11 -0.56354
-71 -10 -0.15634
-71 -9 -0.030017
-71 -8 -0.0063037
-71 -7 -0.024674
-71 -6 -0.04004
-71 -5 -0.04073
-71 -4 -0.04183
-71 -3 -0.062986
-71 -2 -0.10595
-71 -1 -0.15989
-71 0 -0.21517
-71 1 -0.27393
-71 2 -0.31997
-71 3 -0.35753
-71 4 -0.42588
-71 5 -0.57082
-71 6 -0.77256
-71 7 -0.99191
-71 8 -1.2296
-71 9 -1.3092
-71 10 -1.1839
-71 11 -0.84484
-71 12 0.02501
-71 13 1.741
-71 14 3.5174
-71 15 4.0023
-71 16 3.604
-71 17 2.8084
-71 18 1.2897
-71 19 -0.11268
-71 20 -0.30536
-70 -30 -2.327
-70 -29 -2.9347
-70 -28 -2.6478
-70 -27 -2.0456
-70 -26 -1.5417
-70 -25 -1.2237
-70 -24 -1.0397
-70 -23 -1.0535
-70 -22 -1.1425
-70 -21 -1.2346
-70 -20 -1.3692
-70 -19 -1.6548
-70 -18 -2.6727
-70 -17 -4.4035
-70 -16 -5.9638
-70 -15 -6.2374
-70 -14 -4.8322
-70 -13 -2.5616
-70 -12 -0.9819
-70 -11 -0.30579
-70 -10 -0.076086
-70 -9 -0.013472
-70 -8 -0.0079376
-70 -7 -0.029743
-70 -6 -0.050975
-70 -5 -0.055846
-70 -4 -0.053554
-70 -3 -0.069717
-70 -2 -0.11154
-70 -1 -0.15879
-70 0 -0.20935
-70 1 -0.26479
-70 2 -0.30717
-70 3 -0.33041
-70 4 -0.36545
-70 5 -0.43464
-70 6 -0.54287
-70 7 -0.69638
-70 8 -0.90485
-70 9 -1.1023
-70 10 -1.1205
-70 11 -0.76114
-70 12 0.189
-70 13 1.9264
-70 14 3.7539
-70 15 4.2977
-70 16 3.8908
-70 17 2.9139
-70 18 1.1701
-70 19 0.079799
-70 20 0.063486
-69 -30 -2.705
-69 -29 -3.7267
-69 -28 -3.9115
-69 -27 -3.6143
-69 -26 -3.3188
-69 -25 -3.1959
-69 -24 -3.3422
-69 -23 -3.8848
-69 -22 -4.365
-69 -21 -4.4814
-69 -20 -4.2716
-69 -19 -3.8635
-69 -18 -3.9113
-69 -17 -4.5396
-69 -16 -5.2233
-69 -15 -4.9176
-69 -14 -3.3482
-69 -13 -1.5586
-69 -12 -0.52598
-69 -11 -0.13008
-69 -10 -0.01307
-69 -9 0.0021225
-69 -8 -0.013807
-69 -7 -0.036285
-69 -6 -0.056808
-69 -5 -0.064055
-69 -4 -0.060342
-69 -3 -0.073827
-69 -2 -0.11228
-69 -1 -0.15411
-69 0 -0.2008
-69 1 -0.25706
-69 2 -0.30526
-69 3 -0.33533
-69 4 -0.38302
-69 5 -0.44613
-69 6 -0.51103
-69 7 -0.61124
-69 8 -0.77171
-69 9 -0.97064
-69 10 -1.0139
-69 11 -0.52662
-69 12 0.65886
-69 13 2.4435
-69 14 4.1746
-69 15 4.6611
-69 16 4.1891
-69 17 3.0018
-69 18 1.3559
-69 19 0.75152
-69 20 0.82944
-68 -30 -2.1629
-68 -29 -3.2637
-68 -28 -3.8485
-68 -27 -4.03
-68 -26 -4.0546
-68 -25 -4.1568
-68 -24 -4.6368
-68 -23 -5.5573
-68 -22 -6.2419
-68 -21 -6.2786
-68 -20 -5.7363
-68 -19 -4.821
-68 -18 -4.2068
-68 -17 -4.0034
-68 -16 -3.8509
-68 -15 -3.0841
-68 -14 -1.8005
-68 -13 -0.73642
-68 -12 -0.20844
-68 -11 -0.016507
-68 -10 0.0279
-68 -9 0.018023
-68 -8 -0.0089926
-68 -7 -0.032057
-68 -6 -0.047653
-68 -5 -0.056143
-68 -4 -0.057886
-68 -3 -0.073579
-68 -2 -0.10794
-68 -1 -0.15246
-68 0 -0.21129
-68 1 -0.27407
-68 2 -0.32189
-68 3 -0.37332
-68 4 -0.47718
-68 5 -0.58724
-68 6 -0.6141
-68 7 -0.66039
-68 8 -0.77502
-68 9 -0.95659
-68 10 -0.96442
-68 11 -0.31109
-68 12 1.1266
-68 13 3.052
-68 14 4.6376
-68 15 5.012
-68 16 4.4314
-68 17 3.0862
-68 18 1.7079
-68 19 1.862
-68 20 2.2464
-67 -30 -1.405
-67 -29 -2.3285
-67 -28 -3.1065
-67 -27 -3.7168
-67 -26 -4.058
-67 -25 -4.4201
-67 -24 -5.1656
-67 -23 -6.1951
-67 -22 -6.8071
-67 -21 -6.7408
-67 -20 -6.1399
-67 -19 -5.1112
-67 -18 -4.1046
-67 -17 -3.2405
-67 -16 -2.446
-67 -15 -1.5151
-67 -14 -0.69898
-67 -13 -0.21407
-67 -12 -0.01044
-67 -11 0.050576
-67 -10 0.046358
-67 -9 0.024866
-67 -8 0.0028728
-67 -7 -0.017269
-67 -6 -0.032116
-67 -5 -0.042705
-67 -4 -0.051101
-67 -3 -0.066247
-67 -2 -0.10065
-67 -1 -0.16338
-67 0 -0.27156
-67 1 -0.37731
-67 2 -0.40846
-67 3 -0.47723
-67 4 -0.65125
-67 5 -0.80814
-67 6 -0.7878
-67 7 -0.78098
-67 8 -0.84597
-67 9 -1.0083
-67 10 -0.99612
-67 11 -0.27963
-67 12 1.3051
-67 13 3.3862
-67 14 4.7668
-67 15 5.0405
-67 16 4.4642
-67 17 3.1141
-67 18 2.0047
-67 19 2.7987
-67 20 3.4137
-66 -30 -0.80089
-66 -29 -1.4464
-66 -28 -2.2155
-66 -27 -2.9584
-66 -26 -3.4184
-66 -25 -3.9331
-66 -24 -4.7839
-66 -23 -5.7298
-66 -22 -6.188
-66 -21 -6.1395
-66 -20 -5.7755
-66 -19 -4.9741
-66 -18 -3.8157
-66 -17 -2.5001
-66 -16 -1.3499
-66 -15 -0.56185
-66 -14 -0.13507
-66 -13 0.040616
-66 -12 0.085724
-66 -11 0.076269
-66 -10 0.049268
-66 -9 0.029056
-66 -8 0.016289
-66 -7 0.0019965
-66 -6 -0.015371
-66 -5 -0.031091
-66 -4 -0.045604
-66 -3 -0.064021
-66 -2 -0.10162
-66 -1 -0.18075
-66 0 -0.34633
-66 1 -0.5294
-66 2 -0.56711
-66 3 -0.67748
-66 4 -0.88236
-66 5 -0.95174
-66 6 -0.89188
-66 7 -0.86051
-66 8 -0.91152
-66 9 -1.07
-66 10 -1.0607
-66 11 -0.36907
-66 12 1.2011
-66 13 3.1794
-66 14 4.3016
-66 15 4.5405
-66 16 4.1934
-66 17 3.1904
-66 18 2.4438
-66 19 3.4333
-66 20 4.0724
-65 -30 -0.45675
-65 -29 -0.80517
-65 -28 -1.2731
-65 -27 -1.7829
-65 -26 -2.1885
-65 -25 -2.6229
-65 -24 -3.3343
-65 -23 -4.1786
-65 -22 -4.5548
-65 -21 -4.5638
-65 -20 -4.4731
-65 -19 -3.9891
-65 -18 -2.9595
-65 -17 -1.6252
-65 -16 -0.61287
-65 -15 -0.1069
-65 -14 0.085062
-65 -13 0.12594
-65 -12 0.1007
-65 -11 0.05834
-65 -10 0.031577
-65 -9 0.026712
-65 -8 0.024812
-65 -7 0.01315
-65 -6 -0.0076859
-65 -5 -0.02898
-65 -4 -0.0495
-65 -3 -0.075297
-65 -2 -0.11493
-65 -1 -0.18693
-65 0 -0.34025
-65 1 -0.55038
-65 2 -0.71841
-65 3 -0.96229
-65 4 -1.1832
-65 5 -1.1213
-65 6 -0.96593
-65 7 -0.90698
-65 8 -0.96862
-65 9 -1.1543
-65 10 -1.1808
-65 11 -0.51284
-65 12 0.95742
-65 13 2.6012
-65 14 3.4544
-65 15 3.6388
-65 16 3.4765
-65 17 3.034
-65 18 2.8812
-65 19 3.8664
-65 20 4.3079
-64 -30 -0.26965
-64 -29 -0.38831
-64 -28 -0.54621
-64 -27 -0.77473
-64 -26 -1.0153
-64 -25 -1.2644
-64 -24 -1.6615
-64 -23 -2.1779
-64 -22 -2.4808
-64 -21 -2.5911
-64 -20 -2.6705
-64 -19 -2.4664
-64 -18 -1.8138
-64 -17 -0.88698
-64 -16 -0.24186
-64 -15 0.03316
-64 -14 0.11924
-64 -13 0.11064
-64 -12 0.055084
-64 -11 0.0045158
-64 -10 -0.0050618
-64 -9 0.010979
-64 -8 0.020288
-64 -7 0.010701
-64 -6 -0.010243
-64 -5 -0.032964
-64 -4 -0.058413
-64 -3 -0.09085
-64 -2 -0.1283
-64 -1 -0.18276
-64 0 -0.29552
-64 1 -0.50558
-64 2 -0.81373
-64 3 -1.1495
-64 4 -1.3101
-64 5 -1.2272
-64 6 -1.093
-64 7 -1.0173
-64 8 -1.0444
-64 9 -1.2301
-64 10 -1.2982
-64 11 -0.71132
-64 12 0.50556
-64 13 1.745
-64 14 2.2933
-64 15 2.3382
-64 16 2.1922
-64 17 2.0582
-64 18 2.5564
-64 19 3.9583
-64 20 4.2064
-63 -30 -0.097911
-63 -29 -0.12873
-63 -28 -0.16175
-63 -27 -0.2439
-63 -26 -0.34362
-63 -25 -0.44263
-63 -24 -0.5873
-63 -23 -0.79427
-63 -22 -0.98853
-63 -21 -1.1431
-63 -20 -1.2444
-63 -19 -1.1686
-63 -18 -0.86151
-63 -17 -0.42694
-63 -16 -0.12475
-63 -15 0.015583
-63 -14 0.064287
-63 -13 0.039878
-63 -12 -0.025356
-63 -11 -0.062979
-63 -10 -0.046471
-63 -9 -0.013977
-63 -8 0.0044243
-63 -7 -0.0001253
-63 -6 -0.018459
-63 -5 -0.039418
-63 -4 -0.066737
-63 -3 -0.10436
-63 -2 -0.14258
-63 -1 -0.18882
-63 0 -0.27489
-63 1 -0.45339
-63 2 -0.7469
-63 3 -1.0523
-63 4 -1.2374
-63 5 -1.3152
-63 6 -1.2848
-63 7 -1.1666
-63 8 -1.1154
-63 9 -1.1935
-63 10 -1.202
-63 11 -0.75676
-63 12 0.15705
-63 13 0.94171
-63 14 1.2162
-63 15 1.2329
-63 16 1.1569
-63 17 1.2037
-63 18 2.2884
-63 19 4.2381
-63 20 4.1416
-62 -30 0.016794
-62 -29 0.0063599
-62 -28 0.0021809
-62 -27 -0.026121
-62 -26 -0.05802
-62 -25 -0.082511
-62 -24 -0.11925
-62 -23 -0.18832
-62 -22 -0.28697
-62 -21 -0.40065
-62 -20 -0.4881
-62 -19 -0.48958
-62 -18 -0.38403
-62 -17 -0.2334
-62 -16 -0.11995
-62 -15 -0.043465
-62 -14 -0.023185
-62 -13 -0.063875
-62 -12 -0.12145
-62 -11 -0.12069
-62 -10 -0.083208
-62 -9 -0.045707
-62 -8 -0.024242
-62 -7 -0.021387
-62 -6 -0.033804
-62 -5 -0.053641
-62 -4 -0.082961
-62 -3 -0.12579
-62 -2 -0.17087
-62 -1 -0.21875
-62 0 -0.2865
-62 1 -0.41197
-62 2 -0.61888
-62 3 -0.87289
-62 4 -1.1632
-62 5 -1.4537
-62 6 -1.4993
-62 7 -1.2998
-62 8 -1.1715
-62 9 -1.1529
-62 10 -1.1126
-62 11 -0.81636
-62 12 -0.20298
-62 13 0.32444
-62 14 0.5109
-62 15 0.65962
-62 16 0.90467
-62 17 1.4738
-62 18 3.0427
-62 19 4.8467
-62 20 4.1076
-61 -30 0.060832
-61 -29 0.057808
-61 -28 0.063088
-61 -27 0.057293
-61 -26 0.051139
-61 -25 0.050312
-61 -24 0.045093
-61 -23 0.024933
-61 -22 -0.015311
-61 -21 -0.079163
-61 -20 -0.16593
-61 -19 -0.24282
-61 -18 -0.24995
-61 -17 -0.19718
-61 -16 -0.13806
-61 -15 -0.10654
-61 -14 -0.13279
-61 -13 -0.19351
-61 -12 -0.21992
-61 -11 -0.1831
-61 -10 -0.13043
-61 -9 -0.089385
-61 -8 -0.06449
-61 -7 -0.054545
-61 -6 -0.058066
-61 -5 -0.075651
-61 -4 -0.10954
-61 -3 -0.16487
-61 -2 -0.22895
-61 -1 -0.28817
-61 0 -0.3488
-61 1 -0.43601
-61 2 -0.57044
-61 3 -0.77588
-61 4 -1.1126
-61 5 -1.4785
-61 6 -1.5264
-61 7 -1.3145
-61 8 -1.1672
-61 9 -1.1051
-61 10 -1.0266
-61 11 -0.77365
-61 12 -0.34732
-61 13 -0.073594
-61 14 0.13685
-61 15 0.71893
-61 16 1.6686
-61 17 2.9819
-61 18 4.6211
-61 19 5.5557
-61 20 4.0774
-60 -30 0.06592
-60 -29 0.065935
-60 -28 0.077654
-60 -27 0.084947
-60 -26 0.089911
-60 -25 0.095402
-60 -24 0.097975
-60 -23 0.094246
-60 -22 0.081606
-60 -21 0.049216
-60 -20 -0.025928
-60 -19 -0.13976
-60 -18 -0.21016
-60 -17 -0.17925
-60 -16 -0.15717
-60 -15 -0.19858
-60 -14 -0.27378
-60 -13 -0.33586
-60 -12 -0.32141
-60 -11 -0.2534
-60 -10 -0.18087
-60 -9 -0.13295
-60 -8 -0.10745
-60 -7 -0.095514
-60 -6 -0.093127
-60 -5 -0.10504
-60 -4 -0.13581
-60 -3 -0.19885
-60 -2 -0.28956
-60 -1 -0.37952
-60 0 -0.45888
-60 1 -0.53922
-60 2 -0.62906
-60 3 -0.77893
-60 4 -1.0528
-60 5 -1.3152
-60 6 -1.3217
-60 7 -1.1883
-60 8 -1.0393
-60 9 -0.87375
-60 10 -0.68923
-60 11 -0.43293
-60 12 -0.10382
-60 13 0.18445
-60 14 0.68518
-60 15 1.7802
-60 16 3.2555
-60 17 4.7212
-60 18 5.8276
-60 19 5.7735
-60 20 3.8662
-59 -30 0.046023
-59 -29 0.047246
-59 -28 0.06482
-59 -27 0.080558
-59 -26 0.092097
-59 -25 0.10085
-59 -24 0.10536
-59 -23 0.10408
-59 -22 0.099147
-59 -21 0.082415
-59 -20 0.029216
-59 -19 -0.072865
-59 -18 -0.15311
-59 -17 -0.13702
-59 -16 -0.1707
-59 -15 -0.29202
-59 -14 -0.4004
-59 -13 -0.42242
-59 -12 -0.37051
-59 -11 -0.29384
-59 -10 -0.214
-59 -9 -0.16788
-59 -8 -0.15216
-59 -7 -0.14605
-59 -6 -0.14413
-59 -5 -0.1459
-59 -4 -0.16235
-59 -3 -0.21612
-59 -2 -0.3147
-59 -1 -0.43778
-59 0 -0.56189
-59 1 -0.66095
-59 2 -0.72339
-59 3 -0.8141
-59 4 -0.96642
-59 5 -1.1026
-59 6 -1.11
-59 7 -1.0009
-59 8 -0.6953
-59 9 -0.19282
-59 10 0.21613
-59 11 0.44161
-59 12 0.69827
-59 13 1.1365
-59 14 1.9343
-59 15 3.1356
-59 16 4.6043
-59 17 5.7544
-59 18 6.1895
-59 19 5.5882
-59 20 3.5713
-58 -30 0.0085353
-58 -29 0.0061878
-58 -28 0.023608
-58 -27 0.040057
-58 -26 0.051535
-58 -25 0.060803
-58 -24 0.064763
-58 -23 0.05734
-58 -22 0.044848
-58 -21 0.034784
-58 -20 0.0091822
-58 -19 -0.037768
-58 -18 -0.081816
-58 -17 -0.089273
-58 -16 -0.15486
-58 -15 -0.30405
-58 -14 -0.44086
-58 -13 -0.44177
-58 -12 -0.36579
-58 -11 -0.29621
-58 -10 -0.23646
-58 -9 -0.20956
-58 -8 -0.21326
-58 -7 -0.21488
-58 -6 -0.20676
-58 -5 -0.19659
-58 -4 -0.19976
-58 -3 -0.23825
-58 -2 -0.3281
-58 -1 -0.46275
-58 0 -0.61716
-58 1 -0.73901
-58 2 -0.8036
-58 3 -0.87764
-58 4 -0.9701
-58 5 -1.0306
-58 6 -1.0069
-58 7 -0.77312
-58 8 -0.093611
-58 9 0.9278
-58 10 1.634
-58 11 1.9121
-58 12 2.1635
-58 13 2.6554
-58 14 3.4312
-58 15 4.3708
-58 16 5.3555
-58 17 6.0645
-58 18 6.1521
-58 19 5.3892
-58 20 3.3064
-57 -30 -0.041896
-57 -29 -0.056717
-57 -28 -0.049624
-57 -27 -0.043022
-57 -26 -0.044252
-57 -25 -0.043626
-57 -24 -0.041701
-57 -23 -0.062578
-57 -22 -0.092114
-57 -21 -0.08821
-57 -20 -0.08173
-57 -19 -0.073968
-57 -18 -0.075191
-57 -17 -0.096202
-57 -16 -0.1757
-57 -15 -0.31513
-57 -14 -0.43969
-57 -13 -0.43412
-57 -12 -0.35213
-57 -11 -0.29159
-57 -10 -0.26042
-57 -9 -0.26377
-57 -8 -0.2854
-57 -7 -0.28721
-57 -6 -0.27361
-57 -5 -0.2585
-57 -4 -0.25365
-57 -3 -0.27778
-57 -2 -0.35325
-57 -1 -0.48777
-57 0 -0.64868
-57 1 -0.78095
-57 2 -0.87428
-57 3 -0.96915
-57 4 -1.0595
-57 5 -1.078
-57 6 -0.98653
-57 7 -0.53765
-57 8 0.54279
-57 9 1.8676
-57 10 2.792
-57 11 3.285
-57 12 3.6278
-57 13 4.0481
-57 14 4.5829
-57 15 5.1439
-57 16 5.6116
-57 17 6.0134
-57 18 5.9551
-57 19 5.1742
-57 20 3.1104
-56 -30 -0.1108
-56 -29 -0.15909
-56 -28 -0.16866
-56 -27 -0.16763
-56 -26 -0.18201
-56 -25 -0.19683
-56 -24 -0.1946
-56 -23 -0.21985
-56 -22 -0.25491
-56 -21 -0.23702
-56 -20 -0.21815
-56 -19 -0.20997
-56 -18 -0.18189
-56 -17 -0.19499
-56 -16 -0.28444
-56 -15 -0.40801
-56 -14 -0.4745
-56 -13 -0.4414
-56 -12 -0.35845
-56 -11 -0.30944
-56 -10 -0.30191
-56 -9 -0.32423
-56 -8 -0.34213
-56 -7 -0.3438
-56 -6 -0.33936
-56 -5 -0.32821
-56 -4 -0.3218
-56 -3 -0.33786
-56 -2 -0.40664
-56 -1 -0.55263
-56 0 -0.72053
-56 1 -0.85601
-56 2 -0.9631
-56 3 -1.0589
-56 4 -1.1325
-56 5 -1.1524
-56 6 -1.0328
-56 7 -0.43922
-56 8 0.86935
-56 9 2.3043
-56 10 3.3616
-56 11 4.0141
-56 12 4.3936
-56 13 4.7331
-56 14 5.1298
-56 15 5.461
-56 16 5.661
-56 17 5.8487
-56 18 5.6483
-56 19 4.8219
-56 20 2.8898
-55 -30 -0.1909
-55 -29 -0.30502
-55 -28 -0.34142
-55 -27 -0.33703
-55 -26 -0.34646
-55 -25 -0.35256
-55 -24 -0.33191
-55 -23 -0.33856
-55 -22 -0.36838
-55 -21 -0.37957
-55 -20 -0.39685
-55 -19 -0.41806
-55 -18 -0.3754
-55 -17 -0.37646
-55 -16 -0.45519
-55 -15 -0.54723
-55 -14 -0.54029
-55 -13 -0.45887
-55 -12 -0.37093
-55 -11 -0.33661
-55 -10 -0.34728
-55 -9 -0.38329
-55 -8 -0.39113
-55 -7 -0.38205
-55 -6 -0.38444
-55 -5 -0.39251
-55 -4 -0.40307
-55 -3 -0.4206
-55 -2 -0.48661
-55 -1 -0.64714
-55 0 -0.81715
-55 1 -0.94543
-55 2 -1.0539
-55 3 -1.1459
-55 4 -1.2156
-55 5 -1.252
-55 6 -1.1344
-55 7 -0.53152
-55 8 0.78043
-55 9 2.303
-55 10 3.5664
-55 11 4.3083
-55 12 4.6629
-55 13 4.9436
-55 14 5.2814
-55 15 5.5287
-55 16 5.6305
-55 17 5.6051
-55 18 5.2426
-55 19 4.4247
-55 20 2.6727
-54 -30 -0.26934
-54 -29 -0.46406
-54 -28 -0.55462
-54 -27 -0.56393
-54 -26 -0.5694
-54 -25 -0.53653
-54 -24 -0.4407
-54 -23 -0.39264
-54 -22 -0.40713
-54 -21 -0.45528
-54 -20 -0.52354
-54 -19 -0.58389
-54 -18 -0.58894
-54 -17 -0.58084
-54 -16 -0.58699
-54 -15 -0.61015
-54 -14 -0.55868
-54 -13 -0.45716
-54 -12 -0.37208
-54 -11 -0.34645
-54 -10 -0.36943
-54 -9 -0.4123
-54 -8 -0.42892
-54 -7 -0.41588
-54 -6 -0.41973
-54 -5 -0.44652
-54 -4 -0.47783
-54 -3 -0.49538
-54 -2 -0.55551
-54 -1 -0.70945
-54 0 -0.86319
-54 1 -0.99215
-54 2 -1.1107
-54 3 -1.2163
-54 4 -1.311
-54 5 -1.3467
-54 6 -1.1888
-54 7 -0.5732
-54 8 0.71647
-54 9 2.3693
-54 10 3.7999
-54 11 4.5085
-54 12 4.7774
-54 13 4.9726
-54 14 5.2041
-54 15 5.3824
-54 16 5.4016
-54 17 5.15
-54 18 4.7225
-54 19 4.0967
-54 20 2.5383
-53 -30 -0.34815
-53 -29 -0.62016
-53 -28 -0.79658
-53 -27 -0.85543
-53 -26 -0.85464
-53 -25 -0.75937
-53 -24 -0.56547
-53 -23 -0.43739
-53 -22 -0.41238
-53 -21 -0.46439
-53 -20 -0.57013
-53 -19 -0.69572
-53 -18 -0.76912
-53 -17 -0.72787
-53 -16 -0.64083
-53 -15 -0.57876
-53 -14 -0.51165
-53 -13 -0.43625
-53 -12 -0.36573
-53 -11 -0.3419
-53 -10 -0.37022
-53 -9 -0.42082
-53 -8 -0.45419
-53 -7 -0.44694
-53 -6 -0.45189
-53 -5 -0.48597
-53 -4 -0.52202
-53 -3 -0.54004
-53 -2 -0.59145
-53 -1 -0.71915
-53 0 -0.87007
-53 1 -1.0158
-53 2 -1.1491
-53 3 -1.2715
-53 4 -1.3639
-53 5 -1.3221
-53 6 -0.97324
-53 7 -0.10394
-53 8 1.3809
-53 9 3.1006
-53 10 4.2505
-53 11 4.7083
-53 12 4.8619
-53 13 4.976
-53 14 5.0491
-53 15 5.0526
-53 16 4.9416
-53 17 4.4882
-53 18 4.1102
-53 19 3.7106
-53 20 2.3567
-52 -30 -0.44046
-52 -29 -0.79238
-52 -28 -1.0524
-52 -27 -1.1621
-52 -26 -1.1382
-52 -25 -0.97034
-52 -24 -0.70719
-52 -23 -0.51371
-52 -22 -0.44137
-52 -21 -0.46666
-52 -20 -0.56828
-52 -19 -0.71995
-52 -18 -0.83902
-52 -17 -0.80715
-52 -16 -0.67333
-52 -15 -0.5486
-52 -14 -0.469
-52 -13 -0.41365
-52 -12 -0.35293
-52 -11 -0.32961
-52 -10 -0.36287
-52 -9 -0.42626
-52 -8 -0.47919
-52 -7 -0.48063
-52 -6 -0.4865
-52 -5 -0.51929
-52 -4 -0.55413
-52 -3 -0.57192
-52 -2 -0.61847
-52 -1 -0.72585
-52 0 -0.87335
-52 1 -1.0285
-52 2 -1.172
-52 3 -1.2792
-52 4 -1.2767
-52 5 -1.0027
-52 6 -0.26991
-52 7 0.9945
-52 8 2.5369
-52 9 3.8721
-52 10 4.5853
-52 11 4.8198
-52 12 4.8745
-52 13 4.9109
-52 14 4.8226
-52 15 4.6053
-52 16 4.3696
-52 17 3.8955
-52 18 3.6313
-52 19 3.3796
-52 20 2.1649
-51 -30 -0.51227
-51 -29 -0.92946
-51 -28 -1.224
-51 -27 -1.3361
-51 -26 -1.3164
-51 -25 -1.1417
-51 -24 -0.87125
-51 -23 -0.63516
-51 -22 -0.51655
-51 -21 -0.49757
-51 -20 -0.55731
-51 -19 -0.68235
-51 -18 -0.81395
-51 -17 -0.84025
-51 -16 -0.75684
-51 -15 -0.62117
-51 -14 -0.50223
-51 -13 -0.4199
-51 -12 -0.35644
-51 -11 -0.33669
-51 -10 -0.3687
-51 -9 -0.42657
-51 -8 -0.47744
-51 -7 -0.4994
-51 -6 -0.51445
-51 -5 -0.54551
-51 -4 -0.58223
-51 -3 -0.60816
-51 -2 -0.65939
-51 -1 -0.75927
-51 0 -0.89667
-51 1 -1.05
-51 2 -1.1843
-51 3 -1.2218
-51 4 -0.98226
-51 5 -0.25716
-51 6 0.89521
-51 7 2.2133
-51 8 3.443
-51 9 4.276
-51 10 4.6773
-51 11 4.7927
-51 12 4.7611
-51 13 4.6539
-51 14 4.3806
-51 15 3.9483
-51 16 3.6325
-51 17 3.3415
-51 18 3.244
-51 19 3.0681
-51 20 1.9591
-50 -30 -0.46085
-50 -29 -0.85583
-50 -28 -1.1572
-50 -27 -1.275
-50 -26 -1.3289
-50 -25 -1.2476
-50 -24 -1.0273
-50 -23 -0.78795
-50 -22 -0.64137
-50 -21 -0.58665
-50 -20 -0.60273
-50 -19 -0.68306
-50 -18 -0.78127
-50 -17 -0.8542
-50 -16 -0.88575
-50 -15 -0.81527
-50 -14 -0.65946
-50 -13 -0.52542
-50 -12 -0.43835
-50 -11 -0.40849
-50 -10 -0.42454
-50 -9 -0.45664
-50 -8 -0.48539
-50 -7 -0.51222
-50 -6 -0.53768
-50 -5 -0.5729
-50 -4 -0.61222
-50 -3 -0.65438
-50 -2 -0.72234
-50 -1 -0.82743
-50 0 -0.95957
-50 1 -1.0978
-50 2 -1.1886
-50 3 -1.0941
-50 4 -0.50436
-50 5 0.7393
-50 6 2.0893
-50 7 3.1464
-50 8 3.9065
-50 9 4.3854
-50 10 4.6233
-50 11 4.6529
-50 12 4.4942
-50 13 4.1533
-50 14 3.5921
-50 15 2.9464
-50 16 2.7166
-50 17 2.6976
-50 18 2.7927
-50 19 2.7098
-50 20 1.734
-49 -30 -0.19338
-49 -29 -0.43864
-49 -28 -0.7441
-49 -27 -0.94255
-49 -26 -1.1123
-49 -25 -1.1701
-49 -24 -1.0945
-49 -23 -0.93452
-49 -22 -0.80636
-49 -21 -0.73959
-49 -20 -0.72984
-49 -19 -0.77387
-49 -18 -0.83533
-49 -17 -0.92177
-49 -16 -1.0219
-49 -15 -1.026
-49 -14 -0.87413
-49 -13 -0.71692
-49 -12 -0.59779
-49 -11 -0.5423
-49 -10 -0.53728
-49 -9 -0.54274
-49 -8 -0.54444
-49 -7 -0.55623
-49 -6 -0.58541
-49 -5 -0.63166
-49 -4 -0.6751
-49 -3 -0.72712
-49 -2 -0.80788
-49 -1 -0.91578
-49 0 -1.0306
-49 1 -1.1171
-49 2 -1.1027
-49 3 -0.81352
-49 4 0.052508
-49 5 1.4728
-49 6 2.7443
-49 7 3.5612
-49 8 4.0518
-49 9 4.3547
-49 10 4.5003
-49 11 4.4355
-49 12 4.089
-49 13 3.4623
-49 14 2.7464
-49 15 2.1323
-49 16 2.0881
-49 17 2.2645
-49 18 2.4578
-49 19 2.4207
-49 20 1.532
-48 -30 0.35701
-48 -29 0.30857
-48 -28 -0.029655
-48 -27 -0.36674
-48 -26 -0.65454
-48 -25 -0.88548
-48 -24 -1.0511
-48 -23 -1.0576
-48 -22 -1.01
-48 -21 -0.95772
-48 -20 -0.92586
-48 -19 -0.92808
-48 -18 -0.94692
-48 -17 -1.0097
-48 -16 -1.1021
-48 -15 -1.1194
-48 -14 -1.0194
-48 -13 -0.90856
-48 -12 -0.78541
-48 -11 -0.70698
-48 -10 -0.68241
-48 -9 -0.67728
-48 -8 -0.65841
-48 -7 -0.64904
-48 -6 -0.67277
-48 -5 -0.72484
-48 -4 -0.76977
-48 -3 -0.82593
-48 -2 -0.90936
-48 -1 -0.99858
-48 0 -1.042
-48 1 -0.96528
-48 2 -0.70238
-48 3 -0.16004
-48 4 0.82045
-48 5 2.0469
-48 6 3.0412
-48 7 3.6686
-48 8 4.0515
-48 9 4.2911
-48 10 4.3625
-48 11 4.1623
-48 12 3.6399
-48 13 2.8574
-48 14 2.2541
-48 15 1.9231
-48 16 1.9692
-48 17 2.12
-48 18 2.299
-48 19 2.2034
-48 20 1.3251
-47 -30 1.188
-47 -29 1.3897
-47 -28 0.98529
-47 -27 0.41415
-47 -26 -0.11084
-47 -25 -0.56202
-47 -24 -0.95757
-47 -23 -1.1893
-47 -22 -1.2692
-47 -21 -1.2285
-47 -20 -1.151
-47 -19 -1.092
-47 -18 -1.0445
-47 -17 -1.0416
-47 -16 -1.0866
-47 -15 -1.1267
-47 -14 -1.1115
-47 -13 -1.0613
-47 -12 -0.97083
-47 -11 -0.89436
-47 -10 -0.84461
-47 -9 -0.82888
-47 -8 -0.80308
-47 -7 -0.76903
-47 -6 -0.7688
-47 -5 -0.81238
-47 -4 -0.86578
-47 -3 -0.92813
-47 -2 -1.0003
-47 -1 -1.0248
-47 0 -0.87352
-47 1 -0.41152
-47 2 0.286
-47 3 1.0174
-47 4 1.8301
-47 5 2.6193
-47 6 3.2548
-47 7 3.7141
-47 8 4.0347
-47 9 4.2371
-47 10 4.2382
-47 11 3.8721
-47 12 3.1428
-47 13 2.3715
-47 14 1.9866
-47 15 1.9019
-47 16 1.8422
-47 17 1.8915
-47 18 2.0614
-47 19 1.9647
-47 20 1.0935
-46 -30 2.0336
-46 -29 2.5766
-46 -28 2.2117
-46 -27 1.4154
-46 -26 0.56717
-46 -25 -0.1735
-46 -24 -0.79467
-46 -23 -1.2946
-46 -22 -1.5373
-46 -21 -1.4813
-46 -20 -1.3322
-46 -19 -1.2196
-46 -18 -1.1259
-46 -17 -1.0564
-46 -16 -1.0588
-46 -15 -1.1362
-46 -14 -1.1819
-46 -13 -1.1666
-46 -12 -1.1139
-46 -11 -1.0561
-46 -10 -0.98801
-46 -9 -0.94197
-46 -8 -0.91879
-46 -7 -0.88536
-46 -6 -0.86669
-46 -5 -0.88979
-46 -4 -0.94282
-46 -3 -1.0065
-46 -2 -1.0414
-46 -1 -0.91539
-46 0 -0.37473
-46 1 0.67797
-46 2 1.7386
-46 3 2.4024
-46 4 2.8156
-46 5 3.1217
-46 6 3.4148
-46 7 3.7593
-46 8 4.0397
-46 9 4.1859
-46 10 4.0902
-46 11 3.5337
-46 12 2.5122
-46 13 1.7359
-46 14 1.5948
-46 15 1.7766
-46 16 1.7829
-46 17 1.8173
-46 18 1.9469
-46 19 1.8002
-46 20 0.90983
-45 -30 2.6463
-45 -29 3.4834
-45 -28 3.1936
-45 -27 2.3382
-45 -26 1.3505
-45 -25 0.35892
-45 -24 -0.5312
-45 -23 -1.258
-45 -22 -1.6671
-45 -21 -1.6939
-45 -20 -1.5276
-45 -19 -1.3666
-45 -18 -1.2557
-45 -17 -1.1561
-45 -16 -1.0984
-45 -15 -1.1163
-45 -14 -1.1416
-45 -13 -1.145
-45 -12 -1.1352
-45 -11 -1.1267
-45 -10 -1.0807
-45 -9 -1.0386
-45 -8 -1.0099
-45 -7 -0.97911
-45 -6 -0.96697
-45 -5 -0.97482
-45 -4 -1.0089
-45 -3 -1.0456
-45 -2 -0.97322
-45 -1 -0.54164
-45 0 0.54338
-45 1 2.0378
-45 2 3.0258
-45 3 3.3755
-45 4 3.4124
-45 5 3.38
-45 6 3.5045
-45 7 3.8335
-45 8 4.0639
-45 9 4.0922
-45 10 3.832
-45 11 3.1012
-45 12 1.9766
-45 13 1.3111
-45 14 1.4018
-45 15 1.8213
-45 16 2.0308
-45 17 2.0945
-45 18 2.1741
-45 19 1.9424
-45 20 1.0116
-44 -30 2.9581
-44 -29 3.9159
-44 -28 3.6271
-44 -27 2.8439
-44 -26 1.9668
-44 -25 0.95282
-44 -24 -0.1505
-44 -23 -1.0389
-44 -22 -1.6126
-44 -21 -1.7956
-44 -20 -1.7022
-44 -19 -1.5328
-44 -18 -1.4301
-44 -17 -1.3315
-44 -16 -1.2308
-44 -15 -1.1602
-44 -14 -1.1336
-44 -13 -1.1482
-44 -12 -1.166
-44 -11 -1.1804
-44 -10 -1.1597
-44 -9 -1.1404
-44 -8 -1.1011
-44 -7 -1.063
-44 -6 -1.0591
-44 -5 -1.0739
-44 -4 -1.0905
-44 -3 -1.0357
-44 -2 -0.70794
-44 -1 0.19489
-44 0 1.7169
-44 1 3.1373
-44 2 3.7845
-44 3 3.8226
-44 4 3.6147
-44 5 3.4903
-44 6 3.68
-44 7 3.9548
-44 8 4.0367
-44 9 3.8673
-44 10 3.4254
-44 11 2.6546
-44 12 1.7417
-44 13 1.3992
-44 14 1.6464
-44 15 2.1552
-44 16 2.4633
-44 17 2.5683
-44 18 2.5935
-44 19 2.31
-44 20 1.3153
-43 -30 3.0411
-43 -29 4.0135
-43 -28 3.6993
-43 -27 3.0314
-43 -26 2.3427
-43 -25 1.4464
-43 -24 0.28044
-43 -23 -0.73356
-43 -22 -1.3971
-43 -21 -1.6904
-43 -20 -1.7122
-43 -19 -1.5926
-43 -18 -1.5273
-43 -17 -1.4693
-43 -16 -1.3888
-43 -15 -1.2985
-43 -14 -1.2479
-43 -13 -1.2688
-43 -12 -1.2553
-43 -11 -1.2369
-43 -10 -1.2309
-43 -9 -1.2247
-43 -8 -1.1868
-43 -7 -1.1598
-43 -6 -1.1717
-43 -5 -1.1998
-43 -4 -1.1812
-43 -3 -0.94064
-43 -2 -0.1939
-43 -1 1.1412
-43 0 2.6391
-43 1 3.7358
-43 2 4.0902
-43 3 3.9116
-43 4 3.6035
-43 5 3.627
-43 6 3.8404
-43 7 3.9543
-43 8 3.8505
-43 9 3.447
-43 10 2.8828
-43 11 2.3683
-43 12 1.9321
-43 13 1.8445
-43 14 2.1303
-43 15 2.5927
-43 16 2.8978
-43 17 3.0369
-43 18 3.0234
-43 19 2.7138
-43 20 1.6566
-42 -30 2.9417
-42 -29 3.9692
-42 -28 3.7603
-42 -27 3.2399
-42 -26 2.7082
-42 -25 1.9589
-42 -24 0.85366
-42 -23 -0.28636
-42 -22 -1.0303
-42 -21 -1.3802
-42 -20 -1.5519
-42 -19 -1.5513
-42 -18 -1.5264
-42 -17 -1.5094
-42 -16 -1.4717
-42 -15 -1.4019
-42 -14 -1.358
-42 -13 -1.3925
-42 -12 -1.3668
-42 -11 -1.3197
-42 -10 -1.3037
-42 -9 -1.287
-42 -8 -1.2835
-42 -7 -1.3142
-42 -6 -1.3813
-42 -5 -1.4239
-42 -4 -1.3318
-42 -3 -0.83757
-42 -2 0.33527
-42 -1 1.8963
-42 0 3.0979
-42 1 3.8205
-42 2 4.0228
-42 3 3.8001
-42 4 3.5031
-42 5 3.5612
-42 6 3.6779
-42 7 3.6387
-42 8 3.3531
-42 9 2.8034
-42 10 2.2718
-42 11 2.14
-42 12 2.2193
-42 13 2.5131
-42 14 2.824
-42 15 3.1041
-42 16 3.2707
-42 17 3.3197
-42 18 3.3249
-42 19 3.1545
-42 20 2.1018
-41 -30 2.7877
-41 -29 3.9359
-41 -28 3.9429
-41 -27 3.6231
-41 -26 3.2438
-41 -25 2.634
-41 -24 1.6859
-41 -23 0.53469
-41 -22 -0.31225
-41 -21 -0.77116
-41 -20 -1.1629
-41 -19 -1.3786
-41 -18 -1.4204
-41 -17 -1.4286
-41 -16 -1.4115
-41 -15 -1.37
-41 -14 -1.3375
-41 -13 -1.3691
-41 -12 -1.3791
-41 -11 -1.3761
-41 -10 -1.3863
-41 -9 -1.3881
-41 -8 -1.434
-41 -7 -1.5298
-41 -6 -1.6526
-41 -5 -1.6832
-41 -4 -1.4892
-41 -3 -0.76564
-41 -2 0.65318
-41 -1 2.2306
-41 0 3.065
-41 1 3.4803
-41 2 3.6516
-41 3 3.4842
-41 4 3.242
-41 5 3.189
-41 6 3.149
-41 7 2.9646
-41 8 2.5311
-41 9 2.0914
-41 10 1.8604
-41 11 2.0321
-41 12 2.4894
-41 13 3.1105
-41 14 3.5445
-41 15 3.7181
-41 16 3.649
-41 17 3.5376
-41 18 3.6471
-41 19 3.5648
-41 20 2.4736
-40 -30 2.7899
-40 -29 4.0705
-40 -28 4.2563
-40 -27 4.0643
-40 -26 3.8291
-40 -25 3.3444
-40 -24 2.6241
-40 -23 1.7006
-40 -22 0.82811
-40 -21 0.23478
-40 -20 -0.42598
-40 -19 -0.95483
-40 -18 -1.1574
-40 -17 -1.1843
-40 -16 -1.1167
-40 -15 -1.0299
-40 -14 -1.0156
-40 -13 -1.1046
-40 -12 -1.2355
-40 -11 -1.3564
-40 -10 -1.4507
-40 -9 -1.5179
-40 -8 -1.6098
-40 -7 -1.707
-40 -6 -1.7822
-40 -5 -1.7322
-40 -4 -1.3932
-40 -3 -0.43451
-40 -2 1.1981
-40 -1 2.5755
-40 0 3.0443
-40 1 3.1893
-40 2 3.2202
-40 3 3.0877
-40 4 2.9233
-40 5 2.8664
-40 6 2.759
-40 7 2.4403
-40 8 1.915
-40 9 1.6658
-40 10 1.7974
-40 11 2.1994
-40 12 2.8609
-40 13 3.5375
-40 14 4.0623
-40 15 4.2129
-40 16 3.976
-40 17 3.8542
-40 18 3.9839
-40 19 3.8867
-40 20 2.7435
-39 -30 2.8422
-39 -29 4.2306
-39 -28 4.5459
-39 -27 4.4061
-39 -26 4.2491
-39 -25 3.8936
-39 -24 3.3711
-39 -23 2.7414
-39 -22 2.0502
-39 -21 1.3588
-39 -20 0.46695
-39 -19 -0.35199
-39 -18 -0.65587
-39 -17 -0.58082
-39 -16 -0.3392
-39 -15 0.016842
-39 -14 0.083115
-39 -13 -0.26214
-39 -12 -0.80973
-39 -11 -1.2389
-39 -10 -1.5034
-39 -9 -1.6698
-39 -8 -1.7816
-39 -7 -1.8195
-39 -6 -1.7941
-39 -5 -1.5938
-39 -4 -1.0205
-39 -3 0.21736
-39 -2 1.902
-39 -1 2.9784
-39 0 3.1851
-39 1 3.1104
-39 2 2.9971
-39 3 2.8749
-39 4 2.7543
-39 5 2.708
-39 6 2.5753
-39 7 2.2081
-39 8 1.7656
-39 9 1.693
-39 10 2.0536
-39 11 2.6229
-39 12 3.3998
-39 13 4.1088
-39 14 4.5342
-39 15 4.598
-39 16 4.318
-39 17 4.2807
-39 18 4.4806
-39 19 4.3907
-39 20 3.1623
-38 -30 2.5584
-38 -29 4.0653
-38 -28 4.6812
-38 -27 4.7711
-38 -26 4.595
-38 -25 4.2621
-38 -24 3.8319
-38 -23 3.3653
-38 -22 2.8683
-38 -21 2.2064
-38 -20 1.3032
-38 -19 0.51868
-38 -18 0.28555
-38 -17 0.56363
-38 -16 1.131
-38 -15 1.869
-38 -14 1.9945
-38 -13 1.3023
-38 -12 0.13302
-38 -11 -0.83503
-38 -10 -1.436
-38 -9 -1.7962
-38 -8 -1.9401
-38 -7 -1.913
-38 -6 -1.7749
-38 -5 -1.3394
-38 -4 -0.36914
-38 -3 1.1602
-38 -2 2.6575
-38 -1 3.4134
-38 0 3.3669
-38 1 3.1103
-38 2 2.8944
-38 3 2.7445
-38 4 2.6321
-38 5 2.5761
-38 6 2.4459
-38 7 2.1322
-38 8 1.8774
-38 9 1.9274
-38 10 2.3272
-38 11 2.9876
-38 12 3.9043
-38 13 4.6522
-38 14 4.9688
-38 15 4.9694
-38 16 4.7574
-38 17 4.8306
-38 18 5.1312
-38 19 4.9944
-38 20 3.5637
-37 -30 2.0134
-37 -29 3.6627
-37 -28 4.6742
-37 -27 4.9792
-37 -26 4.8032
-37 -25 4.4797
-37 -24 4.071
-37 -23 3.6013
-37 -22 3.2099
-37 -21 2.7402
-37 -20 2.1311
-37 -19 1.6277
-37 -18 1.4349
-37 -17 1.8748
-37 -16 2.7963
-37 -15 3.5597
-37 -14 3.6529
-37 -13 2.9558
-37 -12 1.6084
-37 -11 0.1688
-37 -10 -0.97326
-37 -9 -1.6994
-37 -8 -1.9615
-37 -7 -1.9068
-37 -6 -1.6488
-37 -5 -1.008
-37 -4 0.30336
-37 -3 1.9405
-37 -2 3.1472
-37 -1 3.6615
-37 0 3.4409
-37 1 3.0434
-37 2 2.7452
-37 3 2.5848
-37 4 2.5065
-37 5 2.4403
-37 6 2.3185
-37 7 2.052
-37 8 1.9293
-37 9 2.1104
-37 10 2.4789
-37 11 3.2346
-37 12 4.3849
-37 13 5.1775
-37 14 5.3666
-37 15 5.2502
-37 16 5.0289
-37 17 5.1172
-37 18 5.3523
-37 19 5.2556
-37 20 3.8064
-36 -30 1.6267
-36 -29 3.3627
-36 -28 4.5604
-36 -27 4.9948
-36 -26 4.887
-36 -25 4.613
-36 -24 4.2185
-36 -23 3.7252
-36 -22 3.3672
-36 -21 3.0205
-36 -20 2.678
-36 -19 2.3611
-36 -18 2.1614
-36 -17 2.7675
-36 -16 3.7862
-36 -15 4.4527
-36 -14 4.5654
-36 -13 4.1393
-36 -12 3.1763
-36 -11 1.7905
-36 -10 0.23379
-36 -9 -0.98592
-36 -8 -1.5014
-36 -7 -1.4981
-36 -6 -1.1818
-36 -5 -0.46184
-36 -4 0.88149
-36 -3 2.4094
-36 -2 3.3456
-36 -1 3.684
-36 0 3.3769
-36 1 2.891
-36 2 2.5842
-36 3 2.4053
-36 4 2.316
-36 5 2.2685
-36 6 2.179
-36 7 1.9755
-36 8 2.0362
-36 9 2.3804
-36 10 2.7915
-36 11 3.5559
-36 12 4.7283
-36 13 5.5485
-36 14 5.7239
-36 15 5.5429
-36 16 5.2447
-36 17 5.2774
-36 18 5.4952
-36 19 5.4082
-36 20 3.9824
-35 -30 1.433
-35 -29 3.0897
-35 -28 4.3113
-35 -27 4.8685
-35 -26 4.9547
-35 -25 4.8047
-35 -24 4.4195
-35 -23 3.8693
-35 -22 3.4383
-35 -21 3.0732
-35 -20 2.9431
-35 -19 2.8752
-35 -18 2.8747
-35 -17 3.3695
-35 -16 4.1508
-35 -15 4.7211
-35 -14 4.8889
-35 -13 4.742
-35 -12 4.3073
-35 -11 3.4636
-35 -10 2.1351
-35 -9 0.66012
-35 -8 -0.10115
-35 -7 -0.065388
-35 -6 0.28887
-35 -5 0.90723
-35 -4 1.9096
-35 -3 2.8175
-35 -2 3.2993
-35 -1 3.5072
-35 0 3.2358
-35 1 2.7595
-35 2 2.4871
-35 3 2.3021
-35 4 2.156
-35 5 2.0799
-35 6 2.0395
-35 7 2.0589
-35 8 2.4323
-35 9 3.0179
-35 10 3.5358
-35 11 4.1994
-35 12 5.1223
-35 13 5.8095
-35 14 5.9801
-35 15 5.8219
-35 16 5.4781
-35 17 5.3839
-35 18 5.5231
-35 19 5.3502
-35 20 3.8704
-34 -30 1.425
-34 -29 2.8581
-34 -28 4.0239
-34 -27 4.7496
-34 -26 5.0917
-34 -25 5.0997
-34 -24 4.7208
-34 -23 4.0738
-34 -22 3.5076
-34 -21 3.075
-34 -20 3.0829
-34 -19 3.2165
-34 -18 3.3658
-34 -17 3.6801
-34 -16 4.1752
-34 -15 4.6287
-34 -14 4.7932
-34 -13 4.8968
-34 -12 4.8829
-34 -11 4.632
-34 -10 3.947
-34 -9 2.868
-34 -8 2.1801
-34 -7 2.3664
-34 -6 2.7046
-34 -5 2.893
-34 -4 3.0244
-34 -3 3.1542
-34 -2 3.2166
-34 -1 3.265
-34 0 3.0793
-34 1 2.6552
-34 2 2.396
-34 3 2.2307
-34 4 2.0215
-34 5 1.854
-34 6 1.8654
-34 7 2.2358
-34 8 3.0116
-34 9 3.8802
-34 10 4.5252
-34 11 5.0259
-34 12 5.5212
-34 13 5.9054
-34 14 6.0165
-34 15 5.8192
-34 16 5.3784
-34 17 5.1944
-34 18 5.2469
-34 19 4.9505
-34 20 3.4709
-33 -30 1.6237
-33 -29 2.8219
-33 -28 3.8994
-33 -27 4.7546
-33 -26 5.2705
-33 -25 5.4046
-33 -24 5.0528
-33 -23 4.339
-33 -22 3.7321
-33 -21 3.3478
-33 -20 3.2947
-33 -19 3.4149
-33 -18 3.5953
-33 -17 3.8375
-33 -16 4.2024
-33 -15 4.5539
-33 -14 4.6544
-33 -13 4.9445
-33 -12 5.1613
-33 -11 5.2622
-33 -10 5.0977
-33 -9 4.5704
-33 -8 4.1433
-33 -7 4.2966
-33 -6 4.4483
-33 -5 4.3029
-33 -4 3.923
-33 -3 3.5591
-33 -2 3.3528
-33 -1 3.2131
-33 0 2.9798
-33 1 2.5241
-33 2 2.2636
-33 3 2.1575
-33 4 1.9803
-33 5 1.7773
-33 6 1.8353
-33 7 2.3898
-33 8 3.4279
-33 9 4.4509
-33 10 5.1306
-33 11 5.5426
-33 12 5.7966
-33 13 5.9831
-33 14 5.9579
-33 15 5.6057
-33 16 4.9695
-33 17 4.6748
-33 18 4.703
-33 19 4.4002
-33 20 3.0232
-32 -30 1.7855
-32 -29 2.8518
-32 -28 3.8668
-32 -27 4.8079
-32 -26 5.4208
-32 -25 5.6181
-32 -24 5.284
-32 -23 4.5492
-32 -22 3.9595
-32 -21 3.6153
-32 -20 3.487
-32 -19 3.5403
-32 -18 3.7127
-32 -17 3.9384
-32 -16 4.2937
-32 -15 4.7553
-32 -14 5.0256
-32 -13 5.2469
-32 -12 5.3837
-32 -11 5.5947
-32 -10 5.6432
-32 -9 5.3718
-32 -8 5.0976
-32 -7 5.2145
-32 -6 5.2143
-32 -5 4.9192
-32 -4 4.389
-32 -3 3.8354
-32 -2 3.4885
-32 -1 3.2105
-32 0 2.8821
-32 1 2.3704
-32 2 2.1151
-32 3 2.123
-32 4 2.1414
-32 5 2.0385
-32 6 2.13
-32 7 2.6207
-32 8 3.6036
-32 9 4.618
-32 10 5.2529
-32 11 5.6374
-32 12 5.8783
-32 13 5.9381
-32 14 5.7508
-32 15 5.3297
-32 16 4.6058
-32 17 4.1931
-32 18 4.1709
-32 19 3.9581
-32 20 2.7159
-31 -30 1.5998
-31 -29 2.5006
-31 -28 3.5435
-31 -27 4.6157
-31 -26 5.1973
-31 -25 5.3179
-31 -24 5.018
-31 -23 4.3707
-31 -22 3.8557
-31 -21 3.5478
-31 -20 3.4051
-31 -19 3.404
-31 -18 3.5281
-31 -17 3.7293
-31 -16 4.093
-31 -15 4.6649
-31 -14 5.0948
-31 -13 5.3025
-31 -12 5.3848
-31 -11 5.4885
-31 -10 5.5157
-31 -9 5.3958
-31 -8 5.3188
-31 -7 5.3315
-31 -6 5.1966
-31 -5 4.8812
-31 -4 4.3722
-31 -3 3.7701
-31 -2 3.3277
-31 -1 2.9402
-31 0 2.5519
-31 1 2.0398
-31 2 1.8159
-31 3 1.902
-31 4 2.0813
-31 5 2.1244
-31 6 2.2397
-31 7 2.5827
-31 8 3.3663
-31 9 4.2504
-31 10 4.7741
-31 11 5.1881
-31 12 5.4748
-31 13 5.3401
-31 14 5.0238
-31 15 4.6446
-31 16 4.0675
-31 17 3.6481
-31 18 3.5778
-31 19 3.417
-31 20 2.3339
-30 -30 0.95542
-30 -29 1.6173
-30 -28 2.48
-30 -27 3.3374
-30 -26 3.7247
-30 -25 3.7393
-30 -24 3.5391
-30 -23 3.1004
-30 -22 2.7444
-30 -21 2.5194
-30 -20 2.4065
-30 -19 2.3736
-30 -18 2.4248
-30 -17 2.5576
-30 -16 2.8553
-30 -15 3.3467
-30 -14 3.729
-30 -13 3.9027
-30 -12 3.9581
-30 -11 3.9684
-30 -10 3.9647
-30 -9 3.9466
-30 -8 3.9375
-30 -7 3.89
-30 -6 3.7269
-30 -5 3.4994
-30 -4 3.1309
-30 -3 2.6598
-30 -2 2.2709
-30 -1 1.8852
-30 0 1.5212
-30 1 1.1411
-30 2 1.0189
-30 3 1.1331
-30 4 1.2946
-30 5 1.3627
-30 6 1.4446
-30 7 1.6414
-30 8 2.1015
-30 9 2.6814
-30 10 3.0446
-30 11 3.4029
-30 12 3.6374
-30 13 3.4485
-30 14 3.1861
-30 15 2.9357
-30 16 2.6112
-30 17 2.3438
-30 18 2.3225
-30 19 2.2368
-30 20 1.4573
